ply
format ascii 1.0
element vertex 1258
property float x
property float y
property float z
property uchar red
property uchar green
property uchar blue
end_header
-2.145000 0.772000 1.921000 110 110 110
-2.023000 0.641000 1.921000 96 96 96
-1.895000 0.512000 1.919000 110 110 110
-1.773000 0.390000 1.929000 96 96 96
-2.163000 0.723000 1.922000 117 117 117
-2.036000 0.595000 1.922000 92 92 92
-1.902000 0.469000 1.920000 105 105 105
-1.781000 0.352000 1.934000 96 96 96
-2.178000 0.672000 1.921000 108 108 108
-2.041000 0.547000 1.916000 73 73 73
-1.911000 0.427000 1.922000 104 104 104
-1.783000 0.313000 1.934000 89 89 89
-2.194000 0.622000 1.922000 108 108 108
-2.056000 0.501000 1.921000 62 62 62
-1.918000 0.385000 1.924000 111 111 111
-1.779000 0.273000 1.928000 55 55 55
-2.208000 0.571000 1.923000 68 68 68
-2.061000 0.454000 1.917000 49 49 49
-1.921000 0.342000 1.923000 102 102 102
-1.783000 0.235000 1.932000 65 65 65
-2.237000 0.524000 1.939000 35 35 35
-2.073000 0.408000 1.922000 49 49 49
-1.926000 0.299000 1.924000 104 104 104
-1.783000 0.197000 1.931000 102 102 102
-2.245000 0.471000 1.936000 34 34 34
-2.087000 0.362000 1.929000 44 44 44
-1.931000 0.257000 1.926000 102 102 102
-1.782000 0.159000 1.931000 105 105 105
-2.254000 0.419000 1.936000 34 34 34
-2.086000 0.313000 1.923000 43 43 43
-1.930000 0.214000 1.923000 110 110 110
-1.781000 0.121000 1.931000 108 108 108
-2.260000 0.366000 1.934000 32 32 32
-2.095000 0.266000 1.928000 41 41 41
-1.933000 0.172000 1.925000 108 108 108
-1.776000 0.083000 1.928000 108 108 108
-2.267000 0.313000 1.935000 32 32 32
-2.099000 0.219000 1.928000 40 40 40
-1.931000 0.129000 1.924000 105 105 105
-1.776000 0.045000 1.930000 108 108 108
-2.269000 0.260000 1.932000 32 32 32
-2.103000 0.171000 1.930000 41 41 41
-1.934000 0.087000 1.928000 110 110 110
-1.774000 0.008000 1.932000 107 107 107
-2.277000 0.207000 1.936000 34 34 34
-2.097000 0.123000 1.924000 40 40 40
-1.929000 0.044000 1.924000 105 105 105
-1.769000 -0.028000 1.930000 95 95 95
-2.276000 0.154000 1.933000 34 34 34
-2.102000 0.076000 1.929000 41 41 41
-1.928000 0.002000 1.926000 108 108 108
-1.765000 -0.065000 1.932000 99 99 99
-2.285000 0.101000 1.940000 35 35 35
-2.102000 0.029000 1.930000 43 43 43
-1.924000 -0.039000 1.925000 79 79 79
-1.765000 -0.102000 1.938000 108 108 108
-2.290000 0.048000 1.944000 34 34 34
-2.095000 -0.018000 1.926000 56 56 56
-1.923000 -0.081000 1.929000 105 105 105
-1.754000 -0.138000 1.931000 110 110 110
-2.266000 -0.005000 1.925000 53 53 53
-2.099000 -0.065000 1.933000 108 108 108
-1.917000 -0.122000 1.928000 111 111 111
-1.749000 -0.175000 1.933000 105 105 105
-2.269000 -0.058000 1.930000 113 113 113
-2.095000 -0.113000 1.934000 93 93 93
-1.912000 -0.164000 1.929000 110 110 110
-1.745000 -0.211000 1.937000 114 114 114
-2.268000 -0.111000 1.933000 110 110 110
-2.091000 -0.160000 1.935000 98 98 98
-1.910000 -0.205000 1.933000 105 105 105
-1.737000 -0.247000 1.936000 105 105 105
-2.266000 -0.164000 1.935000 110 110 110
-2.085000 -0.207000 1.936000 93 93 93
-1.900000 -0.246000 1.931000 113 113 113
-1.730000 -0.283000 1.937000 107 107 107
-2.261000 -0.217000 1.937000 114 114 114
-2.080000 -0.254000 1.938000 99 99 99
-1.895000 -0.288000 1.936000 105 105 105
-1.724000 -0.319000 1.941000 114 114 114
-2.255000 -0.269000 1.940000 105 105 105
-2.070000 -0.301000 1.938000 93 93 93
-1.888000 -0.329000 1.938000 107 107 107
-1.716000 -0.354000 1.942000 114 114 114
-2.243000 -0.322000 1.938000 105 105 105
-2.063000 -0.347000 1.940000 95 95 95
-1.878000 -0.370000 1.938000 101 101 101
-1.705000 -0.389000 1.941000 107 107 107
-2.234000 -0.374000 1.940000 105 105 105
-2.054000 -0.394000 1.943000 105 105 105
-1.869000 -0.410000 1.940000 105 105 105
-1.698000 -0.424000 1.946000 117 117 117
-2.223000 -0.426000 1.941000 105 105 105
-2.041000 -0.439000 1.942000 101 101 101
-1.856000 -0.450000 1.939000 108 108 108
-1.692000 -0.460000 1.951000 108 108 108
-2.211000 -0.477000 1.943000 107 107 107
-2.032000 -0.486000 1.946000 101 101 101
-1.847000 -0.490000 1.943000 108 108 108
-1.677000 -0.494000 1.948000 117 117 117
-2.200000 -0.529000 1.946000 110 110 110
-2.019000 -0.531000 1.948000 110 110 110
-1.832000 -0.529000 1.941000 110 110 110
-1.666000 -0.528000 1.949000 116 116 116
-2.184000 -0.580000 1.946000 107 107 107
-2.004000 -0.576000 1.948000 104 104 104
-1.824000 -0.570000 1.947000 116 116 116
-1.657000 -0.563000 1.953000 111 111 111
-2.167000 -0.630000 1.947000 64 64 64
-1.985000 -0.620000 1.946000 83 83 83
-1.809000 -0.609000 1.948000 102 102 102
-1.640000 -0.595000 1.949000 114 114 114
-2.164000 -0.685000 1.962000 22 22 22
-1.969000 -0.664000 1.947000 107 107 107
-1.791000 -0.646000 1.945000 82 82 82
-1.628000 -0.629000 1.951000 93 93 93
-2.132000 -0.730000 1.951000 37 37 37
-1.952000 -0.708000 1.949000 116 116 116
-1.781000 -0.686000 1.951000 99 99 99
-1.617000 -0.664000 1.956000 107 107 107
-2.107000 -0.778000 1.947000 55 55 55
-1.941000 -0.754000 1.957000 108 108 108
-1.763000 -0.724000 1.951000 101 101 101
-1.601000 -0.696000 1.954000 105 105 105
-2.085000 -0.826000 1.949000 85 85 85
-1.922000 -0.797000 1.958000 107 107 107
-1.744000 -0.761000 1.950000 102 102 102
-1.587000 -0.729000 1.956000 110 110 110
-2.067000 -0.876000 1.954000 95 95 95
-1.901000 -0.840000 1.958000 105 105 105
-1.727000 -0.798000 1.951000 105 105 105
-1.570000 -0.760000 1.955000 108 108 108
-2.044000 -0.923000 1.956000 111 111 111
-1.881000 -0.882000 1.961000 102 102 102
-1.711000 -0.836000 1.956000 110 110 110
-1.556000 -0.793000 1.957000 107 107 107
-2.021000 -0.971000 1.959000 117 117 117
-1.859000 -0.924000 1.963000 110 110 110
-1.689000 -0.871000 1.953000 105 105 105
-1.541000 -0.826000 1.960000 114 114 114
-1.997000 -1.018000 1.962000 116 116 116
-1.824000 -0.959000 1.951000 126 126 126
-1.670000 -0.908000 1.956000 113 113 113
-1.521000 -0.856000 1.958000 107 107 107
-1.970000 -1.063000 1.964000 111 111 111
-1.811000 -1.005000 1.964000 102 102 102
-1.650000 -0.944000 1.958000 104 104 104
-1.507000 -0.889000 1.963000 95 95 95
-1.941000 -1.108000 1.965000 117 117 117
-1.776000 -1.039000 1.954000 131 131 131
-1.629000 -0.979000 1.959000 111 111 111
-1.488000 -0.919000 1.962000 98 98 98
-1.913000 -1.152000 1.968000 123 123 123
-1.749000 -1.077000 1.954000 122 122 122
-1.607000 -1.014000 1.960000 110 110 110
-1.469000 -0.950000 1.962000 98 98 98
-1.880000 -1.194000 1.967000 105 105 105
-1.724000 -1.117000 1.957000 126 126 126
-1.585000 -1.049000 1.963000 113 113 113
-1.448000 -0.979000 1.961000 117 117 117
-1.847000 -1.235000 1.967000 80 80 80
-1.709000 -1.163000 1.972000 110 110 110
-1.559000 -1.081000 1.960000 104 104 104
-1.431000 -1.011000 1.964000 113 113 113
-1.811000 -1.273000 1.964000 110 110 110
-1.669000 -1.192000 1.960000 122 122 122
-1.537000 -1.116000 1.964000 104 104 104
-1.411000 -1.041000 1.966000 105 105 105
-1.778000 -1.314000 1.966000 102 102 102
-1.647000 -1.233000 1.969000 85 85 85
-1.515000 -1.150000 1.968000 89 89 89
-1.390000 -1.070000 1.965000 105 105 105
-1.745000 -1.354000 1.969000 108 108 108
-1.610000 -1.264000 1.962000 122 122 122
-1.484000 -1.179000 1.962000 96 96 96
-1.369000 -1.100000 1.967000 114 114 114
-1.710000 -1.393000 1.971000 104 104 104
-1.581000 -1.300000 1.965000 125 125 125
-1.462000 -1.213000 1.968000 92 92 92
-1.348000 -1.129000 1.969000 117 117 117
-1.674000 -1.431000 1.972000 105 105 105
-1.549000 -1.333000 1.965000 122 122 122
-1.434000 -1.244000 1.968000 83 83 83
-1.327000 -1.158000 1.972000 105 105 105
-1.639000 -1.469000 1.976000 107 107 107
-1.524000 -1.373000 1.976000 85 85 85
-1.409000 -1.276000 1.972000 102 102 102
-1.305000 -1.187000 1.973000 113 113 113
-1.598000 -1.502000 1.974000 116 116 116
-1.483000 -1.399000 1.967000 111 111 111
-1.380000 -1.306000 1.973000 104 104 104
-1.284000 -1.217000 1.976000 101 101 101
-1.560000 -1.536000 1.976000 105 105 105
-1.451000 -1.431000 1.970000 125 125 125
-1.352000 -1.335000 1.973000 107 107 107
-1.256000 -1.241000 1.972000 86 86 86
-1.521000 -1.570000 1.978000 83 83 83
-1.417000 -1.463000 1.972000 125 125 125
-1.325000 -1.366000 1.977000 110 110 110
-1.235000 -1.270000 1.977000 90 90 90
-1.481000 -1.603000 1.981000 102 102 102
-1.381000 -1.493000 1.972000 125 125 125
-1.294000 -1.394000 1.977000 108 108 108
-1.209000 -1.297000 1.976000 102 102 102
-1.435000 -1.628000 1.975000 98 98 98
-1.347000 -1.523000 1.975000 125 125 125
-1.263000 -1.421000 1.976000 98 98 98
-1.182000 -1.321000 1.974000 101 101 101
-1.395000 -1.661000 1.980000 107 107 107
-1.311000 -1.553000 1.977000 123 123 123
-1.231000 -1.447000 1.976000 98 98 98
-1.156000 -1.347000 1.975000 98 98 98
-1.354000 -1.691000 1.982000 102 102 102
-1.272000 -1.577000 1.974000 116 116 116
-1.200000 -1.475000 1.979000 107 107 107
-1.129000 -1.372000 1.974000 98 98 98
-1.311000 -1.719000 1.984000 101 101 101
-1.237000 -1.607000 1.980000 125 125 125
-1.166000 -1.498000 1.977000 98 98 98
-1.102000 -1.397000 1.975000 98 98 98
-1.268000 -1.747000 1.987000 99 99 99
-1.198000 -1.632000 1.979000 123 123 123
-1.134000 -1.524000 1.978000 104 104 104
-1.076000 -1.423000 1.977000 107 107 107
-1.224000 -1.772000 1.988000 99 99 99
-1.159000 -1.655000 1.979000 105 105 105
-1.102000 -1.550000 1.980000 108 108 108
-1.048000 -1.447000 1.978000 108 108 108
-1.179000 -1.796000 1.988000 101 101 101
-1.120000 -1.680000 1.981000 111 111 111
-1.069000 -1.574000 1.982000 102 102 102
-1.018000 -1.468000 1.975000 104 104 104
-1.133000 -1.818000 1.989000 93 93 93
-1.081000 -1.704000 1.983000 113 113 113
-1.034000 -1.596000 1.981000 99 99 99
-0.991000 -1.494000 1.980000 99 99 99
-1.087000 -1.839000 1.989000 83 83 83
-1.041000 -1.726000 1.984000 110 110 110
-0.999000 -1.618000 1.981000 102 102 102
-0.963000 -1.519000 1.982000 105 105 105
-1.040000 -1.858000 1.989000 77 77 77
-1.000000 -1.747000 1.984000 108 108 108
-0.964000 -1.640000 1.982000 105 105 105
-0.930000 -1.537000 1.978000 79 79 79
-0.994000 -1.878000 1.990000 89 89 89
-0.959000 -1.766000 1.984000 110 110 110
-0.929000 -1.662000 1.985000 74 74 74
-0.899000 -1.558000 1.976000 99 99 99
-0.946000 -1.895000 1.990000 79 79 79
-0.916000 -1.782000 1.982000 80 80 80
-0.892000 -1.681000 1.984000 101 101 101
-0.868000 -1.579000 1.976000 95 95 95
-0.898000 -1.910000 1.989000 92 92 92
-0.876000 -1.804000 1.987000 102 102 102
-0.855000 -1.698000 1.982000 101 101 101
-0.837000 -1.600000 1.978000 107 107 107
-0.851000 -1.926000 1.991000 90 90 90
-0.835000 -1.823000 1.989000 101 101 101
-0.818000 -1.716000 1.982000 93 93 93
-0.807000 -1.623000 1.981000 102 102 102
-0.804000 -1.942000 1.994000 93 93 93
-0.791000 -1.836000 1.987000 95 95 95
-0.780000 -1.734000 1.982000 101 101 101
-0.773000 -1.641000 1.980000 105 105 105
-0.755000 -1.951000 1.991000 92 92 92
-0.749000 -1.851000 1.988000 89 89 89
-0.744000 -1.753000 1.985000 105 105 105
-0.741000 -1.662000 1.982000 92 92 92
-0.708000 -1.965000 1.995000 99 99 99
-0.706000 -1.866000 1.989000 86 86 86
-0.705000 -1.768000 1.984000 101 101 101
-0.708000 -1.682000 1.984000 98 98 98
-0.659000 -1.972000 1.992000 95 95 95
-0.663000 -1.878000 1.989000 79 79 79
-0.667000 -1.784000 1.984000 98 98 98
-0.674000 -1.698000 1.982000 96 96 96
-0.610000 -1.981000 1.992000 99 99 99
-0.620000 -1.892000 1.992000 90 90 90
-0.630000 -1.804000 1.991000 95 95 95
-0.639000 -1.713000 1.980000 98 98 98
-0.563000 -1.991000 1.995000 99 99 99
-0.576000 -1.903000 1.992000 93 93 93
-0.590000 -1.816000 1.989000 92 92 92
-0.606000 -1.735000 1.986000 98 98 98
-0.514000 -1.995000 1.993000 92 92 92
-0.531000 -1.909000 1.989000 96 96 96
-0.549000 -1.824000 1.985000 104 104 104
-0.570000 -1.750000 1.984000 98 98 98
-0.465000 -1.999000 1.992000 92 92 92
-0.488000 -1.920000 1.992000 98 98 98
-0.511000 -1.842000 1.990000 96 96 96
-0.534000 -1.763000 1.982000 104 104 104
-0.418000 -2.005000 1.994000 98 98 98
-0.444000 -1.929000 1.993000 90 90 90
-0.470000 -1.848000 1.985000 86 86 86
-0.498000 -1.779000 1.983000 108 108 108
-0.370000 -2.007000 1.994000 85 85 85
-0.400000 -1.935000 1.993000 95 95 95
-0.430000 -1.861000 1.987000 86 86 86
-0.463000 -1.798000 1.989000 101 101 101
-0.321000 -2.005000 1.990000 41 41 41
-0.356000 -1.941000 1.994000 82 82 82
-0.390000 -1.871000 1.989000 76 76 76
-0.425000 -1.807000 1.984000 98 98 98
-0.275000 -2.020000 2.006000 29 29 29
-0.312000 -1.950000 1.998000 34 34 34
-0.349000 -1.878000 1.986000 61 61 61
-0.387000 -1.821000 1.986000 104 104 104
-0.227000 -2.017000 2.004000 29 29 29
-0.268000 -1.956000 2.001000 28 28 28
-0.309000 -1.889000 1.990000 53 53 53
-0.350000 -1.836000 1.989000 85 85 85
-0.179000 -2.014000 2.002000 29 29 29
-0.224000 -1.962000 2.004000 29 29 29
-0.268000 -1.899000 1.993000 44 44 44
-0.311000 -1.843000 1.983000 96 96 96
-0.132000 -2.012000 2.004000 29 29 29
-0.180000 -1.963000 2.004000 29 29 29
-0.226000 -1.900000 1.988000 38 38 38
-0.273000 -1.853000 1.983000 99 99 99
-0.085000 -2.011000 2.007000 29 29 29
-0.135000 -1.965000 2.006000 29 29 29
-0.185000 -1.909000 1.992000 35 35 35
-0.234000 -1.864000 1.984000 86 86 86
-0.039000 -2.007000 2.009000 29 29 29
-0.091000 -1.966000 2.007000 29 29 29
-0.143000 -1.917000 1.996000 31 31 31
-0.194000 -1.871000 1.983000 74 74 74
0.007000 -2.000000 2.008000 29 29 29
-0.047000 -1.966000 2.008000 28 28 28
-0.101000 -1.918000 1.993000 29 29 29
-0.155000 -1.885000 1.988000 67 67 67
0.053000 -1.985000 2.001000 29 29 29
-0.002000 -1.958000 2.003000 28 28 28
-0.059000 -1.925000 1.997000 29 29 29
-0.115000 -1.894000 1.989000 62 62 62
0.098000 -1.981000 2.005000 29 29 29
0.041000 -1.960000 2.008000 31 31 31
-0.017000 -1.929000 1.999000 29 29 29
-0.075000 -1.896000 1.985000 55 55 55
0.144000 -1.976000 2.010000 31 31 31
0.085000 -1.957000 2.009000 29 29 29
0.024000 -1.927000 1.997000 31 31 31
-0.034000 -1.904000 1.986000 47 47 47
0.189000 -1.964000 2.008000 29 29 29
0.127000 -1.938000 1.995000 34 34 34
0.066000 -1.930000 1.999000 31 31 31
0.005000 -1.910000 1.987000 43 43 43
0.232000 -1.939000 1.995000 46 46 46
0.171000 -1.933000 1.997000 34 34 34
0.108000 -1.926000 1.996000 31 31 31
0.047000 -1.915000 1.988000 40 40 40
0.275000 -1.928000 1.997000 90 90 90
0.214000 -1.927000 1.997000 38 38 38
0.151000 -1.921000 1.993000 34 34 34
0.088000 -1.921000 1.991000 38 38 38
0.319000 -1.916000 1.999000 82 82 82
0.256000 -1.914000 1.993000 62 62 62
0.193000 -1.924000 1.999000 35 35 35
0.130000 -1.923000 1.991000 40 40 40
0.360000 -1.896000 1.992000 73 73 73
0.300000 -1.914000 2.001000 83 83 83
0.235000 -1.915000 1.993000 44 44 44
0.172000 -1.926000 1.991000 37 37 37
0.403000 -1.883000 1.994000 96 96 96
0.341000 -1.898000 1.995000 65 65 65
0.277000 -1.910000 1.993000 77 77 77
0.214000 -1.926000 1.991000 43 43 43
0.445000 -1.869000 1.996000 92 92 92
0.383000 -1.887000 1.995000 80 80 80
0.319000 -1.907000 1.995000 76 76 76
0.256000 -1.925000 1.990000 67 67 67
0.485000 -1.846000 1.991000 95 95 95
0.425000 -1.878000 1.998000 98 98 98
0.361000 -1.898000 1.992000 68 68 68
0.299000 -1.927000 1.993000 89 89 89
0.527000 -1.835000 1.998000 101 101 101
0.466000 -1.864000 1.997000 99 99 99
0.403000 -1.893000 1.994000 68 68 68
0.342000 -1.926000 1.994000 90 90 90
0.566000 -1.813000 1.994000 98 98 98
0.507000 -1.852000 1.998000 107 107 107
0.445000 -1.887000 1.996000 82 82 82
0.384000 -1.921000 1.991000 89 89 89
0.605000 -1.794000 1.995000 95 95 95
0.548000 -1.838000 1.999000 99 99 99
0.487000 -1.878000 1.996000 86 86 86
0.427000 -1.916000 1.990000 82 82 82
0.643000 -1.772000 1.992000 92 92 92
0.587000 -1.822000 1.997000 92 92 92
0.528000 -1.865000 1.992000 90 90 90
0.470000 -1.913000 1.992000 85 85 85
0.681000 -1.752000 1.994000 99 99 99
0.628000 -1.810000 2.001000 92 92 92
0.570000 -1.857000 1.996000 93 93 93
0.513000 -1.906000 1.990000 80 80 80
0.718000 -1.731000 1.994000 93 93 93
0.667000 -1.791000 1.999000 95 95 95
0.612000 -1.847000 1.997000 92 92 92
0.556000 -1.898000 1.989000 86 86 86
0.754000 -1.707000 1.992000 92 92 92
0.705000 -1.770000 1.996000 99 99 99
0.652000 -1.833000 1.996000 89 89 89
0.600000 -1.893000 1.992000 99 99 99
0.790000 -1.685000 1.994000 99 99 99
0.742000 -1.749000 1.992000 92 92 92
0.693000 -1.820000 1.997000 85 85 85
0.642000 -1.881000 1.989000 98 98 98
0.824000 -1.658000 1.989000 89 89 89
0.781000 -1.734000 1.996000 95 95 95
0.734000 -1.806000 1.997000 89 89 89
0.686000 -1.873000 1.991000 102 102 102
0.859000 -1.635000 1.991000 95 95 95
0.818000 -1.712000 1.995000 92 92 92
0.774000 -1.789000 1.995000 86 86 86
0.729000 -1.864000 1.992000 113 113 113
0.893000 -1.611000 1.992000 95 95 95
0.853000 -1.689000 1.991000 74 74 74
0.814000 -1.773000 1.995000 89 89 89
0.772000 -1.851000 1.991000 116 116 116
0.925000 -1.583000 1.990000 92 92 92
0.890000 -1.669000 1.993000 104 104 104
0.853000 -1.756000 1.995000 76 76 76
0.818000 -1.846000 1.999000 89 89 89
0.957000 -1.556000 1.988000 101 101 101
0.927000 -1.648000 1.994000 105 105 105
0.892000 -1.736000 1.993000 85 85 85
0.860000 -1.830000 1.997000 90 90 90
0.990000 -1.531000 1.991000 101 101 101
0.961000 -1.624000 1.993000 95 95 95
0.931000 -1.718000 1.994000 92 92 92
0.903000 -1.815000 1.998000 99 99 99
1.017000 -1.499000 1.984000 86 86 86
0.995000 -1.598000 1.990000 99 99 99
0.969000 -1.697000 1.993000 92 92 92
0.944000 -1.796000 1.994000 96 96 96
1.050000 -1.475000 1.989000 98 98 98
1.030000 -1.577000 1.993000 93 93 93
1.008000 -1.678000 1.994000 98 98 98
0.987000 -1.782000 1.997000 98 98 98
1.079000 -1.446000 1.988000 99 99 99
1.061000 -1.549000 1.989000 96 96 96
1.044000 -1.654000 1.991000 93 93 93
1.029000 -1.764000 1.997000 104 104 104
1.105000 -1.414000 1.983000 98 98 98
1.094000 -1.522000 1.988000 98 98 98
1.081000 -1.631000 1.990000 92 92 92
1.070000 -1.743000 1.994000 105 105 105
1.134000 -1.387000 1.986000 98 98 98
1.125000 -1.495000 1.987000 96 96 96
1.117000 -1.607000 1.990000 90 90 90
1.110000 -1.720000 1.992000 107 107 107
1.162000 -1.358000 1.987000 92 92 92
1.157000 -1.468000 1.987000 93 93 93
1.153000 -1.583000 1.989000 92 92 92
1.152000 -1.700000 1.993000 104 104 104
1.187000 -1.326000 1.984000 89 89 89
1.190000 -1.443000 1.989000 110 110 110
1.189000 -1.557000 1.988000 90 90 90
1.190000 -1.675000 1.989000 98 98 98
1.215000 -1.299000 1.989000 101 101 101
1.219000 -1.413000 1.987000 96 96 96
1.223000 -1.531000 1.987000 92 92 92
1.232000 -1.653000 1.991000 105 105 105
1.240000 -1.268000 1.988000 99 99 99
1.248000 -1.384000 1.987000 95 95 95
1.259000 -1.506000 1.989000 98 98 98
1.270000 -1.627000 1.989000 102 102 102
1.258000 -1.231000 1.979000 105 105 105
1.276000 -1.354000 1.985000 85 85 85
1.295000 -1.481000 1.992000 92 92 92
1.309000 -1.602000 1.988000 107 107 107
1.284000 -1.203000 1.984000 116 116 116
1.305000 -1.325000 1.985000 89 89 89
1.326000 -1.450000 1.987000 98 98 98
1.346000 -1.574000 1.986000 105 105 105
1.306000 -1.170000 1.982000 108 108 108
1.332000 -1.293000 1.984000 104 104 104
1.360000 -1.422000 1.989000 96 96 96
1.387000 -1.549000 1.990000 104 104 104
1.325000 -1.136000 1.978000 110 110 110
1.359000 -1.263000 1.985000 102 102 102
1.391000 -1.391000 1.986000 89 89 89
1.422000 -1.518000 1.985000 96 96 96
1.348000 -1.106000 1.981000 113 113 113
1.386000 -1.232000 1.985000 107 107 107
1.422000 -1.360000 1.985000 80 80 80
1.461000 -1.490000 1.988000 92 92 92
1.367000 -1.071000 1.978000 104 104 104
1.409000 -1.198000 1.982000 102 102 102
1.452000 -1.328000 1.984000 71 71 71
1.494000 -1.456000 1.983000 102 102 102
1.385000 -1.038000 1.976000 107 107 107
1.435000 -1.167000 1.982000 107 107 107
1.482000 -1.296000 1.983000 99 99 99
1.531000 -1.426000 1.984000 96 96 96
1.405000 -1.006000 1.978000 113 113 113
1.458000 -1.133000 1.981000 83 83 83
1.511000 -1.263000 1.982000 99 99 99
1.565000 -1.393000 1.982000 93 93 93
1.421000 -0.971000 1.974000 105 105 105
1.481000 -1.100000 1.981000 108 108 108
1.541000 -1.231000 1.984000 108 108 108
1.600000 -1.360000 1.983000 86 86 86
1.439000 -0.938000 1.976000 104 104 104
1.505000 -1.067000 1.982000 110 110 110
1.567000 -1.195000 1.981000 98 98 98
1.630000 -1.322000 1.978000 92 92 92
1.456000 -0.905000 1.975000 95 95 95
1.525000 -1.032000 1.980000 108 108 108
1.594000 -1.160000 1.980000 96 96 96
1.666000 -1.290000 1.982000 95 95 95
1.473000 -0.872000 1.977000 98 98 98
1.546000 -0.997000 1.979000 107 107 107
1.622000 -1.126000 1.981000 105 105 105
1.699000 -1.255000 1.983000 107 107 107
1.487000 -0.838000 1.976000 104 104 104
1.565000 -0.961000 1.977000 117 117 117
1.645000 -1.089000 1.979000 99 99 99
1.723000 -1.213000 1.975000 102 102 102
1.503000 -0.804000 1.977000 107 107 107
1.583000 -0.925000 1.974000 108 108 108
1.668000 -1.051000 1.976000 93 93 93
1.759000 -1.179000 1.980000 104 104 104
1.515000 -0.769000 1.975000 95 95 95
1.602000 -0.890000 1.975000 108 108 108
1.694000 -1.015000 1.977000 101 101 101
1.787000 -1.139000 1.978000 111 111 111
1.527000 -0.735000 1.974000 95 95 95
1.620000 -0.854000 1.975000 111 111 111
1.718000 -0.978000 1.979000 108 108 108
1.815000 -1.100000 1.978000 116 116 116
1.540000 -0.700000 1.974000 117 117 117
1.638000 -0.818000 1.975000 111 111 111
1.739000 -0.939000 1.976000 102 102 102
1.844000 -1.060000 1.978000 116 116 116
1.549000 -0.665000 1.971000 110 110 110
1.655000 -0.782000 1.975000 104 104 104
1.765000 -0.902000 1.981000 108 108 108
1.869000 -1.018000 1.977000 114 114 114
1.556000 -0.629000 1.965000 110 110 110
1.665000 -0.743000 1.969000 98 98 98
1.783000 -0.862000 1.977000 108 108 108
1.894000 -0.976000 1.975000 113 113 113
1.567000 -0.595000 1.967000 108 108 108
1.682000 -0.707000 1.971000 117 117 117
1.798000 -0.820000 1.972000 102 102 102
1.917000 -0.933000 1.973000 110 110 110
1.578000 -0.561000 1.967000 108 108 108
1.694000 -0.669000 1.969000 105 105 105
1.819000 -0.780000 1.974000 86 86 86
1.942000 -0.890000 1.974000 113 113 113
1.583000 -0.525000 1.963000 102 102 102
1.708000 -0.631000 1.968000 111 111 111
1.832000 -0.738000 1.969000 93 93 93
1.962000 -0.845000 1.972000 116 116 116
1.596000 -0.492000 1.968000 111 111 111
1.719000 -0.593000 1.967000 101 101 101
1.849000 -0.697000 1.968000 96 96 96
1.987000 -0.802000 1.974000 107 107 107
1.601000 -0.457000 1.965000 101 101 101
1.728000 -0.554000 1.963000 111 111 111
1.867000 -0.656000 1.970000 101 101 101
2.007000 -0.757000 1.974000 87 87 87
1.605000 -0.421000 1.960000 96 96 96
1.740000 -0.517000 1.965000 102 102 102
1.878000 -0.613000 1.966000 96 96 96
2.023000 -0.710000 1.971000 108 108 108
1.614000 -0.387000 1.964000 90 90 90
1.750000 -0.478000 1.964000 105 105 105
1.893000 -0.571000 1.967000 95 95 95
2.040000 -0.663000 1.969000 101 101 101
1.617000 -0.352000 1.961000 99 99 99
1.762000 -0.441000 1.967000 104 104 104
1.904000 -0.528000 1.963000 90 90 90
2.054000 -0.615000 1.966000 93 93 93
1.623000 -0.318000 1.961000 96 96 96
1.767000 -0.401000 1.963000 98 98 98
1.920000 -0.486000 1.967000 90 90 90
2.073000 -0.569000 1.968000 90 90 90
1.628000 -0.284000 1.962000 93 93 93
1.772000 -0.362000 1.960000 89 89 89
1.928000 -0.443000 1.964000 89 89 89
2.088000 -0.522000 1.969000 92 92 92
1.631000 -0.249000 1.961000 96 96 96
1.780000 -0.323000 1.960000 92 92 92
1.938000 -0.399000 1.963000 87 87 87
2.099000 -0.473000 1.966000 86 86 86
1.632000 -0.214000 1.958000 95 95 95
1.786000 -0.284000 1.960000 86 86 86
1.945000 -0.355000 1.961000 83 83 83
2.105000 -0.423000 1.960000 89 89 89
1.637000 -0.180000 1.961000 89 89 89
1.792000 -0.246000 1.960000 90 90 90
1.952000 -0.311000 1.960000 85 85 85
2.122000 -0.376000 1.966000 92 92 92
1.632000 -0.145000 1.953000 79 79 79
1.795000 -0.207000 1.959000 87 87 87
1.961000 -0.268000 1.962000 86 86 86
2.132000 -0.326000 1.966000 95 95 95
1.635000 -0.111000 1.954000 89 89 89
1.799000 -0.167000 1.959000 68 68 68
1.966000 -0.224000 1.960000 83 83 83
2.139000 -0.277000 1.964000 95 95 95
1.640000 -0.077000 1.958000 92 92 92
1.798000 -0.128000 1.955000 83 83 83
1.969000 -0.179000 1.958000 56 56 56
2.146000 -0.227000 1.963000 92 92 92
1.639000 -0.043000 1.957000 87 87 87
1.799000 -0.089000 1.953000 83 83 83
1.973000 -0.134000 1.957000 83 83 83
2.151000 -0.177000 1.962000 43 43 43
1.632000 -0.009000 1.949000 90 90 90
1.802000 -0.050000 1.955000 85 85 85
1.974000 -0.090000 1.956000 79 79 79
2.160000 -0.127000 1.966000 32 32 32
1.634000 0.024000 1.953000 99 99 99
1.803000 -0.011000 1.955000 90 90 90
1.973000 -0.045000 1.953000 82 82 82
2.166000 -0.077000 1.968000 34 34 34
1.633000 0.058000 1.953000 98 98 98
1.800000 0.027000 1.952000 83 83 83
1.970000 -0.001000 1.949000 93 93 93
2.164000 -0.026000 1.964000 32 32 32
1.631000 0.092000 1.952000 95 95 95
1.802000 0.066000 1.956000 98 98 98
1.976000 0.043000 1.954000 89 89 89
2.160000 0.023000 1.960000 32 32 32
1.625000 0.126000 1.949000 92 92 92
1.805000 0.106000 1.961000 37 37 37
1.974000 0.087000 1.953000 89 89 89
2.163000 0.074000 1.963000 38 38 38
1.624000 0.160000 1.952000 101 101 101
1.795000 0.144000 1.952000 26 26 26
1.967000 0.131000 1.949000 98 98 98
2.155000 0.124000 1.957000 37 37 37
1.616000 0.192000 1.946000 99 99 99
1.787000 0.182000 1.947000 99 99 99
1.962000 0.175000 1.946000 90 90 90
2.149000 0.174000 1.955000 38 38 38
1.612000 0.226000 1.946000 101 101 101
1.787000 0.222000 1.952000 95 95 95
1.959000 0.220000 1.948000 93 93 93
2.142000 0.224000 1.952000 46 46 46
1.608000 0.259000 1.948000 96 96 96
1.777000 0.259000 1.946000 95 95 95
1.952000 0.264000 1.946000 96 96 96
2.132000 0.273000 1.948000 49 49 49
1.600000 0.292000 1.944000 98 98 98
1.772000 0.298000 1.947000 95 95 95
1.945000 0.308000 1.945000 93 93 93
2.122000 0.323000 1.946000 59 59 59
1.595000 0.325000 1.946000 101 101 101
1.764000 0.336000 1.946000 96 96 96
1.937000 0.351000 1.945000 92 92 92
2.113000 0.372000 1.944000 68 68 68
1.588000 0.358000 1.945000 95 95 95
1.754000 0.374000 1.942000 104 104 104
1.928000 0.395000 1.943000 86 86 86
2.107000 0.422000 1.948000 83 83 83
1.578000 0.390000 1.941000 98 98 98
1.747000 0.412000 1.944000 64 64 64
1.914000 0.437000 1.939000 93 93 93
2.090000 0.470000 1.943000 93 93 93
1.568000 0.422000 1.938000 59 59 59
1.736000 0.449000 1.941000 96 96 96
1.902000 0.480000 1.937000 98 98 98
2.079000 0.519000 1.943000 95 95 95
1.562000 0.455000 1.941000 86 86 86
1.724000 0.486000 1.939000 101 101 101
1.894000 0.523000 1.940000 102 102 102
2.063000 0.567000 1.941000 99 99 99
1.555000 0.488000 1.943000 89 89 89
1.714000 0.523000 1.939000 105 105 105
1.881000 0.566000 1.940000 98 98 98
2.041000 0.613000 1.934000 104 104 104
1.544000 0.519000 1.940000 87 87 87
1.701000 0.560000 1.937000 102 102 102
1.858000 0.605000 1.930000 90 90 90
2.032000 0.662000 1.941000 104 104 104
1.534000 0.551000 1.940000 90 90 90
1.687000 0.596000 1.935000 105 105 105
1.846000 0.647000 1.932000 99 99 99
2.009000 0.707000 1.935000 105 105 105
1.518000 0.581000 1.933000 90 90 90
1.676000 0.633000 1.937000 104 104 104
1.829000 0.688000 1.931000 102 102 102
1.986000 0.751000 1.930000 107 107 107
1.506000 0.612000 1.931000 87 87 87
1.662000 0.669000 1.936000 108 108 108
1.811000 0.729000 1.929000 92 92 92
1.967000 0.797000 1.931000 110 110 110
1.497000 0.644000 1.934000 85 85 85
1.643000 0.703000 1.931000 102 102 102
1.794000 0.769000 1.929000 98 98 98
1.945000 0.842000 1.930000 101 101 101
1.483000 0.675000 1.933000 102 102 102
1.629000 0.739000 1.932000 113 113 113
1.774000 0.809000 1.928000 102 102 102
1.923000 0.887000 1.930000 104 104 104
1.471000 0.706000 1.933000 105 105 105
1.612000 0.774000 1.930000 104 104 104
1.755000 0.848000 1.927000 102 102 102
1.901000 0.931000 1.931000 104 104 104
1.457000 0.737000 1.932000 101 101 101
1.596000 0.809000 1.931000 105 105 105
1.735000 0.888000 1.928000 101 101 101
1.873000 0.972000 1.926000 108 108 108
1.442000 0.767000 1.931000 108 108 108
1.578000 0.843000 1.930000 105 105 105
1.714000 0.926000 1.928000 98 98 98
1.828000 1.004000 1.907000 65 65 65
1.427000 0.797000 1.930000 104 104 104
1.560000 0.878000 1.930000 95 95 95
1.685000 0.960000 1.920000 96 96 96
1.733000 1.006000 1.833000 58 58 58
1.414000 0.828000 1.932000 105 105 105
1.537000 0.909000 1.924000 93 93 93
1.660000 0.996000 1.917000 86 86 86
1.654000 1.012000 1.776000 59 59 59
1.395000 0.856000 1.927000 102 102 102
1.516000 0.941000 1.922000 116 116 116
1.608000 1.015000 1.883000 64 64 64
1.571000 1.013000 1.715000 62 62 62
1.380000 0.886000 1.927000 110 110 110
1.496000 0.974000 1.922000 119 119 119
1.533000 1.017000 1.823000 55 55 55
1.498000 1.016000 1.662000 65 65 65
1.365000 0.916000 1.930000 102 102 102
1.469000 1.003000 1.914000 86 86 86
1.461000 1.017000 1.765000 62 62 62
1.415000 1.009000 1.598000 61 61 61
1.345000 0.943000 1.925000 107 107 107
1.428000 1.020000 1.888000 62 62 62
1.386000 1.012000 1.703000 52 52 52
1.350000 1.011000 1.553000 62 62 62
1.328000 0.973000 1.926000 117 117 117
1.365000 1.020000 1.832000 58 58 58
1.322000 1.012000 1.653000 55 55 55
1.289000 1.013000 1.512000 62 62 62
1.310000 1.001000 1.926000 98 98 98
1.304000 1.020000 1.779000 64 64 64
1.267000 1.016000 1.613000 58 58 58
1.234000 1.017000 1.477000 61 61 61
1.279000 1.020000 1.907000 74 74 74
1.246000 1.018000 1.729000 55 55 55
1.213000 1.018000 1.574000 59 59 59
1.175000 1.016000 1.437000 67 67 67
1.238000 1.030000 1.873000 71 71 71
1.193000 1.019000 1.684000 58 58 58
1.159000 1.018000 1.534000 61 61 61
1.125000 1.020000 1.407000 65 65 65
1.180000 1.023000 1.814000 58 58 58
1.143000 1.019000 1.643000 59 59 59
1.112000 1.022000 1.502000 59 59 59
1.077000 1.023000 1.380000 68 68 68
1.130000 1.022000 1.767000 55 55 55
1.098000 1.022000 1.608000 59 59 59
1.065000 1.024000 1.471000 61 61 61
1.023000 1.019000 1.343000 71 71 71
1.087000 1.025000 1.729000 56 56 56
1.053000 1.024000 1.573000 59 59 59
1.018000 1.025000 1.439000 61 61 61
0.980000 1.022000 1.320000 74 74 74
1.043000 1.024000 1.688000 56 56 56
1.006000 1.021000 1.535000 62 62 62
0.970000 1.021000 1.404000 67 67 67
0.936000 1.023000 1.295000 77 77 77
1.001000 1.025000 1.651000 56 56 56
0.969000 1.028000 1.512000 59 59 59
0.929000 1.023000 1.379000 65 65 65
0.898000 1.029000 1.278000 73 73 73
0.964000 1.028000 1.620000 62 62 62
0.929000 1.029000 1.483000 67 67 67
0.891000 1.027000 1.358000 62 62 62
0.855000 1.027000 1.253000 71 71 71
0.927000 1.031000 1.592000 68 68 68
0.889000 1.028000 1.454000 58 58 58
0.852000 1.027000 1.334000 80 80 80
0.818000 1.030000 1.236000 73 73 73
0.890000 1.032000 1.561000 61 61 61
0.850000 1.028000 1.425000 68 68 68
0.817000 1.031000 1.316000 73 73 73
0.780000 1.031000 1.219000 74 74 74
0.853000 1.031000 1.528000 61 61 61
0.816000 1.031000 1.404000 62 62 62
0.778000 1.029000 1.292000 71 71 71
0.745000 1.033000 1.203000 77 77 77
0.819000 1.034000 1.504000 70 70 70
0.780000 1.030000 1.379000 74 74 74
0.746000 1.035000 1.279000 73 73 73
0.709000 1.034000 1.187000 85 85 85
0.786000 1.034000 1.477000 64 64 64
0.748000 1.034000 1.361000 70 70 70
0.713000 1.037000 1.262000 67 67 67
0.674000 1.034000 1.171000 79 79 79
0.753000 1.035000 1.453000 65 65 65
0.715000 1.034000 1.340000 70 70 70
0.677000 1.034000 1.241000 64 64 64
0.641000 1.035000 1.158000 83 83 83
0.721000 1.036000 1.429000 68 68 68
0.682000 1.034000 1.320000 64 64 64
0.646000 1.037000 1.228000 80 80 80
0.607000 1.033000 1.143000 92 92 92
0.690000 1.036000 1.406000 68 68 68
0.653000 1.038000 1.306000 70 70 70
0.615000 1.038000 1.214000 90 90 90
0.579000 1.039000 1.137000 93 93 93
0.660000 1.039000 1.387000 73 73 73
0.621000 1.036000 1.285000 73 73 73
0.583000 1.036000 1.197000 82 82 82
0.549000 1.041000 1.128000 95 95 95
0.630000 1.038000 1.364000 65 65 65
0.592000 1.038000 1.271000 76 76 76
0.554000 1.038000 1.186000 87 87 87
0.519000 1.042000 1.119000 95 95 95
0.601000 1.037000 1.344000 67 67 67
0.561000 1.037000 1.253000 76 76 76
0.525000 1.039000 1.175000 86 86 86
0.488000 1.040000 1.108000 19 19 19
0.572000 1.038000 1.326000 74 74 74
0.534000 1.038000 1.240000 70 70 70
0.495000 1.039000 1.163000 87 87 87
0.458000 1.038000 1.097000 71 71 71
0.546000 1.042000 1.312000 76 76 76
0.506000 1.040000 1.227000 74 74 74
0.470000 1.044000 1.158000 16 16 16
0.432000 1.043000 1.095000 16 16 16
0.518000 1.041000 1.294000 77 77 77
0.478000 1.038000 1.212000 85 85 85
0.441000 1.041000 1.145000 73 73 73
0.402000 1.040000 1.084000 82 82 82
0.490000 1.039000 1.276000 86 86 86
0.453000 1.043000 1.205000 82 82 82
0.415000 1.044000 1.140000 16 16 16
0.379000 1.050000 1.089000 17 17 17
0.466000 1.043000 1.266000 79 79 79
0.427000 1.045000 1.196000 85 85 85
0.388000 1.044000 1.131000 79 79 79
0.349000 1.042000 1.075000 82 82 82
0.440000 1.045000 1.252000 85 85 85
0.400000 1.044000 1.184000 82 82 82
0.362000 1.046000 1.126000 16 16 16
0.324000 1.048000 1.077000 17 17 17
0.414000 1.043000 1.236000 83 83 83
0.377000 1.049000 1.180000 82 82 82
0.337000 1.048000 1.121000 16 16 16
0.299000 1.051000 1.076000 17 17 17
0.390000 1.046000 1.226000 85 85 85
0.352000 1.052000 1.174000 80 80 80
0.312000 1.050000 1.117000 16 16 16
0.272000 1.048000 1.070000 17 17 17
0.364000 1.043000 1.210000 82 82 82
0.327000 1.053000 1.165000 17 17 17
0.286000 1.049000 1.110000 14 14 14
0.247000 1.050000 1.069000 17 17 17
0.340000 1.045000 1.201000 82 82 82
0.300000 1.047000 1.150000 56 56 56
0.262000 1.052000 1.108000 16 16 16
0.223000 1.054000 1.071000 17 17 17
0.315000 1.042000 1.187000 64 64 64
0.277000 1.052000 1.148000 17 17 17
0.237000 1.053000 1.105000 14 14 14
0.198000 1.054000 1.069000 16 16 16
0.000000 0.000000 0.000000 16 16 16
0.252000 1.050000 1.140000 67 67 67
0.214000 1.057000 1.106000 16 16 16
0.173000 1.054000 1.069000 17 17 17
0.269000 1.050000 1.176000 70 70 70
0.229000 1.054000 1.137000 17 17 17
0.189000 1.056000 1.102000 14 14 14
0.148000 1.054000 1.070000 17 17 17
0.000000 0.000000 0.000000 16 16 16
0.205000 1.055000 1.132000 14 14 14
0.165000 1.059000 1.102000 14 14 14
0.124000 1.058000 1.074000 16 16 16
0.222000 1.050000 1.158000 74 74 74
0.182000 1.056000 1.128000 70 70 70
0.140000 1.053000 1.094000 16 16 16
0.100000 1.058000 1.075000 17 17 17
0.000000 0.000000 0.000000 16 16 16
0.158000 1.054000 1.122000 14 14 14
0.117000 1.059000 1.099000 14 14 14
0.075000 1.056000 1.074000 17 17 17
0.176000 1.051000 1.144000 73 73 73
0.135000 1.056000 1.120000 17 17 17
0.093000 1.058000 1.097000 14 14 14
0.051000 1.057000 1.079000 17 17 17
0.153000 1.057000 1.143000 16 16 16
0.112000 1.056000 1.116000 14 14 14
0.070000 1.061000 1.100000 14 14 14
0.027000 1.057000 1.081000 17 17 17
0.130000 1.058000 1.138000 16 16 16
0.088000 1.058000 1.115000 14 14 14
0.046000 1.058000 1.098000 14 14 14
0.003000 1.059000 1.087000 16 16 16
0.108000 1.059000 1.133000 16 16 16
0.065000 1.057000 1.113000 14 14 14
0.022000 1.061000 1.101000 14 14 14
-0.020000 1.061000 1.093000 16 16 16
0.085000 1.059000 1.129000 16 16 16
0.042000 1.060000 1.113000 14 14 14
0.000000 1.062000 1.104000 14 14 14
-0.044000 1.063000 1.100000 16 16 16
0.062000 1.058000 1.122000 17 17 17
0.019000 1.058000 1.110000 14 14 14
-0.024000 1.065000 1.109000 14 14 14
-0.068000 1.063000 1.105000 16 16 16
0.039000 1.058000 1.118000 17 17 17
-0.003000 1.061000 1.112000 14 14 14
-0.047000 1.063000 1.110000 14 14 14
-0.092000 1.063000 1.111000 16 16 16
0.016000 1.063000 1.120000 17 17 17
-0.026000 1.065000 1.117000 14 14 14
-0.071000 1.067000 1.117000 14 14 14
-0.117000 1.066000 1.121000 16 16 16
-0.006000 1.064000 1.118000 17 17 17
-0.049000 1.064000 1.116000 14 14 14
-0.095000 1.065000 1.119000 14 14 14
-0.141000 1.065000 1.128000 16 16 16
-0.029000 1.064000 1.116000 17 17 17
-0.073000 1.063000 1.116000 14 14 14
-0.119000 1.068000 1.126000 14 14 14
-0.166000 1.066000 1.137000 74 74 74
-0.052000 1.064000 1.114000 19 19 19
-0.096000 1.068000 1.122000 14 14 14
-0.143000 1.069000 1.133000 14 14 14
-0.191000 1.069000 1.149000 16 16 16
-0.075000 1.067000 1.116000 17 17 17
-0.120000 1.066000 1.122000 14 14 14
-0.167000 1.066000 1.135000 14 14 14
-0.215000 1.065000 1.154000 67 67 67
-0.099000 1.067000 1.115000 19 19 19
-0.144000 1.066000 1.125000 73 73 73
-0.192000 1.069000 1.145000 16 16 16
-0.242000 1.073000 1.173000 16 16 16
-0.122000 1.069000 1.117000 17 17 17
-0.168000 1.072000 1.134000 14 14 14
-0.217000 1.073000 1.155000 14 14 14
-0.266000 1.070000 1.180000 87 87 87
-0.146000 1.068000 1.116000 19 19 19
-0.192000 1.069000 1.134000 67 67 67
-0.241000 1.070000 1.160000 76 76 76
-0.292000 1.072000 1.194000 87 87 87
-0.170000 1.069000 1.118000 19 19 19
-0.217000 1.071000 1.141000 14 14 14
-0.267000 1.073000 1.171000 14 14 14
-0.319000 1.074000 1.208000 87 87 87
-0.193000 1.067000 1.117000 19 19 19
-0.241000 1.070000 1.145000 61 61 61
-0.291000 1.067000 1.174000 73 73 73
-0.344000 1.072000 1.220000 87 87 87
-0.218000 1.068000 1.120000 19 19 19
-0.266000 1.072000 1.153000 14 14 14
-0.319000 1.078000 1.195000 14 14 14
-0.372000 1.074000 1.236000 83 83 83
-0.244000 1.075000 1.130000 19 19 19
-0.292000 1.074000 1.162000 82 82 82
-0.344000 1.074000 1.201000 86 86 86
-0.401000 1.080000 1.257000 82 82 82
-0.268000 1.074000 1.132000 19 19 19
-0.319000 1.079000 1.173000 16 16 16
-0.371000 1.077000 1.216000 87 87 87
-0.428000 1.081000 1.274000 80 80 80
-0.293000 1.072000 1.134000 76 76 76
-0.344000 1.077000 1.179000 87 87 87
-0.399000 1.080000 1.231000 87 87 87
-0.457000 1.081000 1.292000 74 74 74
-0.320000 1.074000 1.141000 19 19 19
-0.372000 1.081000 1.192000 82 82 82
-0.426000 1.079000 1.242000 86 86 86
-0.486000 1.083000 1.312000 67 67 67
-0.344000 1.071000 1.143000 74 74 74
-0.397000 1.076000 1.195000 82 82 82
-0.455000 1.081000 1.258000 83 83 83
-0.516000 1.085000 1.333000 67 67 67
-0.372000 1.076000 1.154000 19 19 19
-0.426000 1.082000 1.211000 77 77 77
-0.483000 1.082000 1.274000 73 73 73
-0.545000 1.085000 1.352000 70 70 70
-0.399000 1.075000 1.160000 82 82 82
-0.452000 1.078000 1.218000 85 85 85
-0.515000 1.088000 1.296000 71 71 71
-0.577000 1.086000 1.375000 73 73 73
-0.429000 1.081000 1.174000 85 85 85
-0.482000 1.082000 1.234000 79 79 79
-0.544000 1.088000 1.312000 68 68 68
-0.608000 1.087000 1.398000 76 76 76
-0.456000 1.079000 1.180000 87 87 87
-0.513000 1.086000 1.251000 82 82 82
-0.575000 1.089000 1.331000 65 65 65
-0.641000 1.089000 1.424000 70 70 70
-0.486000 1.083000 1.193000 87 87 87
-0.541000 1.082000 1.259000 71 71 71
-0.606000 1.089000 1.349000 68 68 68
-0.675000 1.091000 1.452000 71 71 71
-0.514000 1.079000 1.199000 79 79 79
-0.573000 1.086000 1.279000 71 71 71
-0.640000 1.093000 1.374000 65 65 65
-0.709000 1.092000 1.479000 68 68 68
-0.546000 1.084000 1.215000 83 83 83
-0.606000 1.089000 1.297000 76 76 76
-0.671000 1.091000 1.392000 73 73 73
-0.747000 1.098000 1.515000 74 74 74
-0.580000 1.091000 1.234000 79 79 79
-0.639000 1.091000 1.316000 73 73 73
-0.708000 1.096000 1.421000 67 67 67
-0.783000 1.099000 1.545000 64 64 64
-0.611000 1.089000 1.246000 71 71 71
-0.674000 1.096000 1.339000 76 76 76
-0.741000 1.093000 1.440000 68 68 68
-0.822000 1.102000 1.580000 62 62 62
-0.643000 1.089000 1.260000 74 74 74
-0.706000 1.092000 1.353000 74 74 74
-0.779000 1.098000 1.472000 67 67 67
-0.861000 1.104000 1.616000 67 67 67
-0.681000 1.096000 1.282000 74 74 74
-0.744000 1.097000 1.379000 64 64 64
-0.819000 1.103000 1.504000 59 59 59
-0.901000 1.105000 1.652000 64 64 64
-0.714000 1.095000 1.297000 73 73 73
-0.781000 1.099000 1.403000 70 70 70
-0.859000 1.105000 1.536000 59 59 59
-0.943000 1.107000 1.691000 58 58 58
-0.753000 1.100000 1.320000 73 73 73
-0.819000 1.100000 1.427000 71 71 71
-0.901000 1.108000 1.570000 62 62 62
-0.987000 1.109000 1.733000 56 56 56
-0.790000 1.100000 1.339000 76 76 76
-0.859000 1.101000 1.453000 55 55 55
-0.939000 1.105000 1.596000 61 61 61
-1.033000 1.112000 1.779000 59 59 59
-0.794000 1.054000 1.303000 4 4 4
-0.778000 0.954000 1.281000 4 4 4
-0.847000 0.954000 1.407000 4 4 4
-1.080000 1.112000 1.823000 40 40 40
-0.782000 0.992000 1.245000 2 2 2
-0.783000 0.917000 1.255000 2 2 2
-0.787000 0.849000 1.279000 2 2 2
-0.789000 0.779000 1.310000 0 0 0
-0.785000 0.950000 1.213000 2 2 2
-0.784000 0.879000 1.226000 2 2 2
-0.788000 0.813000 1.253000 4 4 4
-0.783000 0.740000 1.277000 2 2 2
-0.788000 0.911000 1.183000 2 2 2
-0.787000 0.843000 1.200000 2 2 2
-0.788000 0.778000 1.228000 2 2 2
-0.782000 0.708000 1.255000 2 2 2
-0.788000 0.871000 1.153000 2 2 2
-0.790000 0.810000 1.178000 2 2 2
-0.789000 0.747000 1.207000 2 2 2
-0.792000 0.687000 1.251000 4 4 4
-0.791000 0.835000 1.127000 2 2 2
-0.794000 0.779000 1.157000 2 2 2
-0.789000 0.714000 1.184000 4 4 4
-0.796000 0.661000 1.240000 2 2 2
-0.791000 0.798000 1.100000 2 2 2
-0.795000 0.746000 1.135000 2 2 2
-0.787000 0.682000 1.161000 4 4 4
-1.231000 0.979000 1.891000 17 17 17
-0.793000 0.765000 1.077000 2 2 2
-0.792000 0.711000 1.109000 2 2 2
-0.805000 0.667000 1.168000 2 2 2
-1.260000 0.959000 1.911000 80 80 80
-0.792000 0.731000 1.052000 4 4 4
-0.794000 0.682000 1.090000 4 4 4
-0.836000 0.664000 1.195000 2 2 2
-1.280000 0.932000 1.917000 95 95 95
-0.794000 0.700000 1.032000 4 4 4
0.000000 0.000000 0.000000 0 0 0
-0.885000 0.672000 1.245000 2 2 2
-1.294000 0.901000 1.915000 101 101 101
-0.793000 0.668000 1.010000 0 0 0
0.000000 0.000000 0.000000 0 0 0
-1.362000 0.987000 1.889000 13 13 13
-1.309000 0.871000 1.916000 102 102 102
-0.831000 0.668000 1.037000 2 2 2
-0.897000 0.672000 1.168000 2 2 2
-1.395000 0.966000 1.908000 76 76 76
-1.323000 0.841000 1.917000 102 102 102
-0.876000 0.672000 1.073000 2 2 2
-0.940000 0.671000 1.204000 2 2 2
-1.420000 0.938000 1.917000 96 96 96
-1.337000 0.811000 1.918000 98 98 98
-0.920000 0.673000 1.107000 2 2 2
-0.991000 0.675000 1.250000 2 2 2
-1.438000 0.907000 1.918000 96 96 96
-1.349000 0.780000 1.918000 108 108 108
-0.967000 0.674000 1.143000 2 2 2
-1.527000 0.992000 1.899000 71 71 71
-1.456000 0.874000 1.920000 110 110 110
-1.363000 0.750000 1.920000 108 108 108
-1.017000 0.675000 1.183000 2 2 2
-1.555000 0.962000 1.907000 102 102 102
-1.469000 0.839000 1.915000 108 108 108
-1.373000 0.718000 1.919000 122 122 122
-1.075000 0.678000 1.231000 2 2 2
-1.576000 0.927000 1.909000 120 120 120
-1.485000 0.807000 1.916000 107 107 107
-1.385000 0.688000 1.921000 120 120 120
-1.140000 0.683000 1.286000 0 0 0
-1.599000 0.893000 1.913000 125 125 125
-1.500000 0.773000 1.916000 114 114 114
-1.396000 0.657000 1.922000 108 108 108
-1.715000 0.976000 1.909000 85 85 85
-1.617000 0.857000 1.911000 123 123 123
-1.518000 0.741000 1.921000 122 122 122
-1.404000 0.625000 1.920000 105 105 105
-1.743000 0.939000 1.914000 113 113 113
-1.636000 0.821000 1.913000 128 128 128
-1.530000 0.707000 1.920000 125 125 125
-1.414000 0.595000 1.922000 101 101 101
-1.767000 0.901000 1.917000 119 119 119
-1.651000 0.783000 1.910000 113 113 113
-1.542000 0.673000 1.920000 119 119 119
-1.422000 0.563000 1.921000 92 92 92
-1.784000 0.859000 1.913000 105 105 105
-1.669000 0.746000 1.913000 129 129 129
-1.554000 0.638000 1.920000 117 117 117
-1.429000 0.532000 1.921000 85 85 85
-1.807000 0.819000 1.916000 119 119 119
-1.690000 0.711000 1.918000 110 110 110
-1.565000 0.604000 1.920000 119 119 119
-1.440000 0.503000 1.926000 99 99 99
-1.826000 0.778000 1.915000 117 117 117
-1.699000 0.671000 1.913000 114 114 114
-1.580000 0.571000 1.925000 117 117 117
-1.446000 0.471000 1.926000 93 93 93
-1.844000 0.736000 1.915000 120 120 120
-1.719000 0.634000 1.920000 117 117 117
-1.587000 0.535000 1.923000 95 95 95
-1.453000 0.440000 1.927000 99 99 99
-1.864000 0.695000 1.919000 125 125 125
-1.732000 0.596000 1.920000 113 113 113
-1.597000 0.500000 1.923000 117 117 117
-1.458000 0.409000 1.927000 104 104 104
-1.879000 0.651000 1.918000 111 111 111
-1.745000 0.557000 1.922000 83 83 83
-1.606000 0.465000 1.924000 116 116 116
-1.463000 0.378000 1.927000 105 105 105
-1.893000 0.608000 1.917000 111 111 111
-1.756000 0.518000 1.921000 113 113 113
-1.613000 0.430000 1.925000 116 116 116
-1.468000 0.347000 1.928000 96 96 96
-1.910000 0.565000 1.921000 82 82 82
-1.767000 0.479000 1.922000 117 117 117
-1.621000 0.395000 1.926000 111 111 111
-1.472000 0.316000 1.929000 98 98 98
-1.921000 0.521000 1.919000 107 107 107
-1.776000 0.439000 1.922000 114 114 114
-1.627000 0.360000 1.926000 110 110 110
-1.472000 0.285000 1.924000 104 104 104
-1.935000 0.477000 1.922000 116 116 116
-1.785000 0.399000 1.923000 114 114 114
-1.633000 0.324000 1.927000 111 111 111
-1.476000 0.254000 1.926000 102 102 102
-1.946000 0.432000 1.922000 113 113 113
-1.796000 0.359000 1.927000 104 104 104
-1.638000 0.289000 1.927000 110 110 110
-1.478000 0.223000 1.926000 105 105 105
-1.959000 0.388000 1.927000 105 105 105
-1.798000 0.318000 1.922000 107 107 107
-1.644000 0.254000 1.930000 113 113 113
-1.481000 0.193000 1.928000 116 116 116
-1.963000 0.342000 1.923000 114 114 114
-1.809000 0.279000 1.929000 73 73 73
-1.647000 0.218000 1.930000 113 113 113
-1.484000 0.162000 1.930000 104 104 104
-1.970000 0.297000 1.923000 117 117 117
-1.814000 0.238000 1.929000 95 95 95
-1.648000 0.182000 1.928000 108 108 108
-1.486000 0.132000 1.931000 107 107 107
-1.980000 0.251000 1.928000 105 105 105
-1.813000 0.197000 1.925000 108 108 108
-1.654000 0.147000 1.934000 114 114 114
-1.484000 0.101000 1.929000 107 107 107
-1.981000 0.205000 1.924000 113 113 113
-1.819000 0.157000 1.928000 119 119 119
-1.653000 0.111000 1.932000 114 114 114
-1.482000 0.070000 1.927000 117 117 117
-1.992000 0.160000 1.932000 111 111 111
-1.822000 0.116000 1.930000 98 98 98
-1.652000 0.076000 1.930000 104 104 104
-1.480000 0.040000 1.926000 138 138 138
-1.992000 0.113000 1.929000 104 104 104
-1.820000 0.075000 1.927000 108 108 108
-1.655000 0.040000 1.934000 107 107 107
-1.483000 0.010000 1.931000 132 132 132
-1.989000 0.067000 1.926000 110 110 110
-1.821000 0.034000 1.929000 113 113 113
-1.652000 0.005000 1.932000 104 104 104
-1.483000 -0.020000 1.933000 104 104 104
-1.989000 0.021000 1.927000 113 113 113
-1.813000 -0.005000 1.922000 113 113 113
-1.652000 -0.030000 1.934000 101 101 101
-1.482000 -0.050000 1.936000 61 61 61
-1.987000 -0.024000 1.926000 80 80 80
-1.817000 -0.046000 1.928000 67 67 67
-1.646000 -0.065000 1.931000 110 110 110
-1.479000 -0.080000 1.935000 101 101 101
-1.984000 -0.070000 1.925000 102 102 102
-1.812000 -0.086000 1.926000 110 110 110
-1.646000 -0.100000 1.935000 113 113 113
-1.475000 -0.110000 1.935000 101 101 101
-1.985000 -0.116000 1.930000 119 119 119
-1.810000 -0.127000 1.929000 116 116 116
-1.640000 -0.135000 1.932000 107 107 107
-1.472000 -0.140000 1.936000 99 99 99
-1.979000 -0.162000 1.930000 114 114 114
-1.802000 -0.167000 1.925000 110 110 110
-1.641000 -0.171000 1.938000 110 110 110
-1.469000 -0.170000 1.937000 93 93 93
-1.974000 -0.207000 1.931000 116 116 116
-1.805000 -0.208000 1.935000 117 117 117
-1.635000 -0.206000 1.938000 107 107 107
-1.464000 -0.200000 1.937000 99 99 99
-1.974000 -0.254000 1.938000 107 107 107
-1.799000 -0.248000 1.935000 114 114 114
-1.631000 -0.241000 1.940000 110 110 110
-1.461000 -0.230000 1.939000 96 96 96
-1.967000 -0.299000 1.939000 110 110 110
-1.786000 -0.287000 1.929000 110 110 110
-1.625000 -0.276000 1.942000 116 116 116
-1.455000 -0.259000 1.938000 93 93 93
-1.952000 -0.343000 1.934000 113 113 113
-1.788000 -0.329000 1.941000 108 108 108
-1.618000 -0.310000 1.942000 111 111 111
-1.449000 -0.289000 1.939000 101 101 101
-1.949000 -0.390000 1.943000 111 111 111
-1.774000 -0.367000 1.936000 99 99 99
-1.609000 -0.344000 1.941000 113 113 113
-1.446000 -0.319000 1.943000 92 92 92
-1.937000 -0.434000 1.943000 113 113 113
-1.764000 -0.407000 1.937000 98 98 98
-1.602000 -0.379000 1.944000 108 108 108
-1.441000 -0.349000 1.946000 90 90 90
-1.919000 -0.477000 1.938000 111 111 111
-1.759000 -0.447000 1.945000 113 113 113
-1.594000 -0.413000 1.945000 110 110 110
-1.429000 -0.377000 1.940000 105 105 105
-1.916000 -0.524000 1.949000 107 107 107
-1.748000 -0.486000 1.945000 116 116 116
-1.584000 -0.447000 1.945000 116 116 116
-1.426000 -0.407000 1.947000 101 101 101
-1.899000 -0.567000 1.948000 114 114 114
-1.736000 -0.525000 1.947000 105 105 105
-1.577000 -0.482000 1.950000 110 110 110
-1.418000 -0.436000 1.947000 98 98 98
-1.884000 -0.611000 1.950000 95 95 95
-1.723000 -0.563000 1.947000 110 110 110
-1.567000 -0.516000 1.952000 116 116 116
-1.409000 -0.465000 1.947000 98 98 98
-1.865000 -0.653000 1.948000 98 98 98
-1.710000 -0.601000 1.950000 105 105 105
-1.552000 -0.548000 1.948000 113 113 113
-1.400000 -0.494000 1.948000 105 105 105
-1.850000 -0.696000 1.952000 107 107 107
-1.692000 -0.638000 1.947000 85 85 85
