ply
format ascii 1.0
element vertex 1264
property float x
property float y
property float z
property uchar red
property uchar green
property uchar blue
end_header
-0.208000 -1.827000 1.979000 99 99 99
-0.267000 -1.833000 1.981000 97 97 97
-0.051000 -1.822000 1.977000 94 94 94
-0.108000 -1.828000 1.978000 99 99 99
-0.167000 -1.833000 1.977000 94 94 94
-0.226000 -1.845000 1.981000 100 100 100
-0.012000 -1.819000 1.978000 66 66 66
-0.068000 -1.829000 1.978000 102 102 102
-0.126000 -1.838000 1.976000 97 97 97
-0.184000 -1.856000 1.980000 99 99 99
0.027000 -1.812000 1.976000 96 96 96
-0.028000 -1.828000 1.977000 84 84 84
-0.085000 -1.847000 1.980000 91 91 91
-0.142000 -1.863000 1.976000 93 93 93
0.066000 -1.807000 1.976000 93 93 93
0.011000 -1.830000 1.980000 94 94 94
-0.044000 -1.850000 1.978000 93 93 93
-0.099000 -1.874000 1.977000 83 83 83
0.104000 -1.802000 1.977000 91 91 91
0.051000 -1.824000 1.974000 97 97 97
-0.002000 -1.859000 1.983000 88 88 88
-0.056000 -1.884000 1.978000 75 75 75
0.142000 -1.792000 1.974000 100 100 100
0.091000 -1.827000 1.980000 99 99 99
0.039000 -1.862000 1.983000 87 87 87
-0.012000 -1.892000 1.978000 54 54 54
0.180000 -1.785000 1.975000 100 100 100
0.132000 -1.825000 1.981000 96 96 96
0.080000 -1.859000 1.979000 91 91 91
0.031000 -1.897000 1.976000 85 85 85
0.218000 -1.779000 1.977000 100 100 100
0.171000 -1.816000 1.976000 108 108 108
0.123000 -1.861000 1.980000 97 97 97
0.075000 -1.908000 1.981000 78 78 78
0.256000 -1.770000 1.977000 97 97 97
0.211000 -1.812000 1.976000 105 105 105
0.165000 -1.861000 1.980000 93 93 93
0.120000 -1.911000 1.980000 78 78 78
0.293000 -1.760000 1.977000 100 100 100
0.250000 -1.804000 1.973000 94 94 94
0.207000 -1.859000 1.978000 93 93 93
0.164000 -1.914000 1.978000 78 78 78
0.330000 -1.751000 1.978000 99 99 99
0.290000 -1.801000 1.976000 106 106 106
0.250000 -1.861000 1.982000 91 91 91
0.210000 -1.918000 1.980000 81 81 81
0.367000 -1.739000 1.978000 97 97 97
0.329000 -1.794000 1.976000 106 106 106
0.292000 -1.857000 1.980000 96 96 96
0.255000 -1.917000 1.977000 78 78 78
0.402000 -1.725000 1.976000 109 109 109
0.368000 -1.783000 1.974000 94 94 94
0.334000 -1.851000 1.978000 88 88 88
0.301000 -1.918000 1.977000 83 83 83
0.437000 -1.709000 1.972000 108 108 108
0.407000 -1.775000 1.975000 109 109 109
0.377000 -1.846000 1.978000 90 90 90
0.347000 -1.918000 1.978000 80 80 80
0.472000 -1.696000 1.972000 112 112 112
0.446000 -1.764000 1.972000 99 99 99
0.418000 -1.838000 1.975000 93 93 93
0.392000 -1.912000 1.974000 78 78 78
0.507000 -1.681000 1.971000 109 109 109
0.484000 -1.752000 1.971000 99 99 99
0.461000 -1.834000 1.978000 97 97 97
0.439000 -1.912000 1.976000 91 91 91
0.542000 -1.668000 1.972000 103 103 103
0.522000 -1.740000 1.970000 94 94 94
0.503000 -1.823000 1.974000 87 87 87
0.485000 -1.908000 1.977000 93 93 93
0.573000 -1.645000 1.963000 90 90 90
0.560000 -1.729000 1.971000 105 105 105
0.544000 -1.812000 1.971000 88 88 88
0.531000 -1.899000 1.972000 91 91 91
0.607000 -1.630000 1.965000 109 109 109
0.597000 -1.716000 1.970000 97 97 97
0.586000 -1.801000 1.970000 80 80 80
0.577000 -1.893000 1.972000 74 74 74
0.642000 -1.618000 1.970000 103 103 103
0.634000 -1.701000 1.969000 100 100 100
0.628000 -1.792000 1.971000 96 96 96
0.624000 -1.887000 1.974000 96 96 96
0.672000 -1.596000 1.963000 100 100 100
0.671000 -1.686000 1.968000 100 100 100
0.670000 -1.780000 1.971000 97 97 97
0.670000 -1.878000 1.973000 102 102 102
0.704000 -1.578000 1.962000 105 105 105
0.708000 -1.671000 1.968000 102 102 102
0.711000 -1.766000 1.969000 93 93 93
0.716000 -1.866000 1.971000 99 99 99
0.737000 -1.563000 1.966000 97 97 97
0.745000 -1.656000 1.969000 99 99 99
0.752000 -1.754000 1.971000 97 97 97
0.762000 -1.854000 1.971000 102 102 102
0.769000 -1.545000 1.967000 100 100 100
0.780000 -1.639000 1.968000 100 100 100
0.793000 -1.739000 1.970000 100 100 100
0.807000 -1.839000 1.967000 105 105 105
0.799000 -1.525000 1.966000 103 103 103
0.816000 -1.621000 1.968000 103 103 103
0.831000 -1.719000 1.964000 94 94 94
0.852000 -1.825000 1.966000 106 106 106
0.830000 -1.506000 1.967000 103 103 103
0.851000 -1.602000 1.966000 97 97 97
0.873000 -1.704000 1.966000 99 99 99
0.898000 -1.810000 1.966000 111 111 111
0.859000 -1.484000 1.964000 100 100 100
0.887000 -1.585000 1.969000 105 105 105
0.915000 -1.691000 1.971000 96 96 96
0.947000 -1.802000 1.974000 93 93 93
0.890000 -1.465000 1.967000 106 106 106
0.920000 -1.564000 1.966000 100 100 100
0.954000 -1.671000 1.968000 91 91 91
0.992000 -1.783000 1.972000 91 91 91
0.917000 -1.441000 1.963000 93 93 93
0.954000 -1.543000 1.966000 100 100 100
0.993000 -1.651000 1.968000 96 96 96
1.037000 -1.764000 1.971000 100 100 100
0.948000 -1.423000 1.967000 97 97 97
0.988000 -1.522000 1.966000 100 100 100
1.034000 -1.633000 1.971000 99 99 99
1.080000 -1.742000 1.969000 96 96 96
0.974000 -1.398000 1.963000 87 87 87
1.021000 -1.500000 1.965000 105 105 105
1.069000 -1.607000 1.965000 94 94 94
1.126000 -1.725000 1.972000 106 106 106
1.004000 -1.378000 1.968000 80 80 80
1.053000 -1.477000 1.964000 105 105 105
1.109000 -1.587000 1.967000 106 106 106
1.166000 -1.697000 1.965000 81 81 81
1.027000 -1.350000 1.960000 60 60 60
1.086000 -1.454000 1.964000 103 103 103
1.146000 -1.563000 1.965000 96 96 96
1.210000 -1.674000 1.965000 102 102 102
1.058000 -1.331000 1.967000 60 60 60
1.117000 -1.431000 1.964000 103 103 103
1.182000 -1.537000 1.963000 77 77 77
1.254000 -1.652000 1.967000 100 100 100
1.090000 -1.315000 1.978000 48 48 48
1.147000 -1.405000 1.961000 97 97 97
1.220000 -1.514000 1.965000 96 96 96
1.295000 -1.625000 1.965000 105 105 105
1.115000 -1.289000 1.976000 35 35 35
1.177000 -1.379000 1.960000 66 66 66
1.255000 -1.487000 1.963000 99 99 99
1.335000 -1.596000 1.962000 105 105 105
1.139000 -1.263000 1.974000 38 38 38
1.209000 -1.355000 1.962000 80 80 80
1.290000 -1.460000 1.961000 99 99 99
1.379000 -1.571000 1.965000 103 103 103
1.163000 -1.237000 1.972000 50 50 50
1.238000 -1.328000 1.961000 109 109 109
1.325000 -1.433000 1.962000 100 100 100
1.418000 -1.541000 1.963000 100 100 100
1.182000 -1.206000 1.964000 69 69 69
1.267000 -1.301000 1.960000 108 108 108
1.362000 -1.406000 1.964000 84 84 84
1.457000 -1.510000 1.961000 102 102 102
1.205000 -1.179000 1.962000 77 77 77
1.296000 -1.273000 1.960000 109 109 109
1.390000 -1.371000 1.956000 90 90 90
1.499000 -1.482000 1.965000 103 103 103
1.228000 -1.152000 1.961000 91 91 91
1.321000 -1.243000 1.956000 111 111 111
1.429000 -1.346000 1.963000 96 96 96
1.537000 -1.448000 1.963000 102 102 102
1.248000 -1.124000 1.957000 108 108 108
1.351000 -1.216000 1.959000 100 100 100
1.461000 -1.316000 1.963000 100 100 100
1.572000 -1.413000 1.960000 87 87 87
1.271000 -1.097000 1.958000 115 115 115
1.378000 -1.187000 1.959000 109 109 109
1.491000 -1.282000 1.960000 96 96 96
1.610000 -1.379000 1.960000 96 96 96
1.292000 -1.070000 1.958000 111 111 111
1.403000 -1.156000 1.957000 120 120 120
1.522000 -1.250000 1.959000 102 102 102
1.646000 -1.345000 1.961000 106 106 106
1.312000 -1.041000 1.956000 108 108 108
1.427000 -1.125000 1.955000 115 115 115
1.551000 -1.215000 1.957000 99 99 99
1.680000 -1.306000 1.958000 106 106 106
1.333000 -1.013000 1.956000 108 108 108
1.454000 -1.095000 1.957000 109 109 109
1.580000 -1.181000 1.956000 103 103 103
1.715000 -1.270000 1.959000 114 114 114
1.352000 -0.984000 1.954000 108 108 108
1.478000 -1.064000 1.956000 106 106 106
1.612000 -1.148000 1.960000 106 106 106
1.749000 -1.232000 1.959000 111 111 111
1.370000 -0.954000 1.952000 109 109 109
1.502000 -1.032000 1.957000 115 115 115
1.635000 -1.109000 1.953000 103 103 103
1.776000 -1.189000 1.953000 99 99 99
1.389000 -0.925000 1.952000 112 112 112
1.526000 -1.000000 1.957000 105 105 105
1.664000 -1.074000 1.954000 99 99 99
1.812000 -1.152000 1.958000 97 97 97
1.408000 -0.896000 1.952000 115 115 115
1.544000 -0.965000 1.952000 118 118 118
1.692000 -1.038000 1.956000 103 103 103
1.842000 -1.111000 1.957000 105 105 105
1.426000 -0.867000 1.952000 114 114 114
1.568000 -0.932000 1.954000 114 114 114
1.716000 -1.000000 1.955000 105 105 105
1.869000 -1.068000 1.954000 103 103 103
1.444000 -0.837000 1.952000 117 117 117
1.586000 -0.897000 1.950000 118 118 118
1.738000 -0.961000 1.951000 97 97 97
1.897000 -1.024000 1.952000 105 105 105
1.462000 -0.807000 1.953000 84 84 84
1.606000 -0.862000 1.949000 115 115 115
1.764000 -0.923000 1.953000 102 102 102
1.926000 -0.982000 1.954000 99 99 99
1.474000 -0.774000 1.946000 111 111 111
1.627000 -0.829000 1.951000 109 109 109
1.786000 -0.883000 1.952000 99 99 99
1.948000 -0.936000 1.950000 102 102 102
1.494000 -0.746000 1.952000 114 114 114
1.645000 -0.793000 1.949000 102 102 102
1.805000 -0.842000 1.948000 93 93 93
1.974000 -0.891000 1.950000 106 106 106
1.508000 -0.714000 1.951000 109 109 109
1.661000 -0.756000 1.946000 115 115 115
1.824000 -0.801000 1.945000 85 85 85
1.997000 -0.846000 1.949000 105 105 105
1.521000 -0.682000 1.948000 109 109 109
1.682000 -0.722000 1.950000 117 117 117
1.844000 -0.760000 1.945000 90 90 90
2.019000 -0.799000 1.947000 108 108 108
1.538000 -0.651000 1.951000 114 114 114
1.697000 -0.685000 1.948000 108 108 108
1.866000 -0.719000 1.947000 96 96 96
2.042000 -0.753000 1.949000 117 117 117
1.550000 -0.619000 1.948000 108 108 108
1.710000 -0.647000 1.944000 111 111 111
1.883000 -0.677000 1.946000 103 103 103
2.059000 -0.704000 1.945000 108 108 108
1.560000 -0.586000 1.945000 100 100 100
1.727000 -0.610000 1.945000 106 106 106
1.902000 -0.635000 1.947000 99 99 99
2.082000 -0.657000 1.948000 108 108 108
1.575000 -0.554000 1.947000 103 103 103
1.738000 -0.572000 1.942000 109 109 109
1.916000 -0.592000 1.944000 96 96 96
2.097000 -0.608000 1.945000 102 102 102
1.586000 -0.521000 1.945000 99 99 99
1.755000 -0.535000 1.945000 102 102 102
1.932000 -0.549000 1.945000 102 102 102
2.109000 -0.558000 1.941000 94 94 94
1.597000 -0.488000 1.944000 96 96 96
1.768000 -0.497000 1.944000 106 106 106
1.947000 -0.505000 1.945000 99 99 99
2.128000 -0.509000 1.944000 103 103 103
1.609000 -0.455000 1.945000 103 103 103
1.778000 -0.458000 1.942000 105 105 105
1.959000 -0.461000 1.943000 96 96 96
2.141000 -0.459000 1.943000 105 105 105
1.619000 -0.422000 1.944000 100 100 100
1.788000 -0.419000 1.940000 93 93 93
1.970000 -0.416000 1.942000 90 90 90
2.152000 -0.409000 1.941000 103 103 103
1.626000 -0.388000 1.940000 96 96 96
1.800000 -0.381000 1.941000 105 105 105
1.980000 -0.371000 1.941000 88 88 88
2.161000 -0.358000 1.938000 99 99 99
1.636000 -0.354000 1.941000 97 97 97
1.810000 -0.342000 1.940000 102 102 102
1.990000 -0.327000 1.941000 93 93 93
2.168000 -0.307000 1.935000 91 91 91
1.644000 -0.320000 1.940000 96 96 96
1.818000 -0.302000 1.939000 93 93 93
1.996000 -0.281000 1.937000 90 90 90
2.173000 -0.256000 1.932000 84 84 84
1.654000 -0.286000 1.941000 90 90 90
1.824000 -0.262000 1.937000 93 93 93
2.006000 -0.236000 1.939000 54 54 54
2.182000 -0.205000 1.933000 91 91 91
1.661000 -0.252000 1.940000 90 90 90
1.833000 -0.223000 1.939000 57 57 57
2.010000 -0.191000 1.936000 88 88 88
2.191000 -0.154000 1.935000 106 106 106
1.667000 -0.217000 1.939000 65 65 65
1.836000 -0.183000 1.935000 91 91 91
2.015000 -0.145000 1.935000 87 87 87
2.189000 -0.102000 1.929000 94 94 94
1.672000 -0.182000 1.938000 93 93 93
1.842000 -0.142000 1.935000 96 96 96
2.019000 -0.099000 1.934000 87 87 87
2.192000 -0.050000 1.929000 94 94 94
1.681000 -0.147000 1.940000 106 106 106
1.848000 -0.102000 1.935000 90 90 90
2.024000 -0.053000 1.935000 94 94 94
2.199000 0.000000 1.932000 102 102 102
1.686000 -0.112000 1.940000 94 94 94
1.848000 -0.062000 1.931000 88 88 88
2.023000 -0.007000 1.932000 88 88 88
2.194000 0.052000 1.927000 94 94 94
1.688000 -0.077000 1.937000 100 100 100
1.856000 -0.021000 1.935000 87 87 87
2.024000 0.038000 1.930000 90 90 90
2.192000 0.103000 1.926000 97 97 97
1.691000 -0.041000 1.935000 97 97 97
1.856000 0.019000 1.933000 91 91 91
2.025000 0.084000 1.931000 93 93 93
2.195000 0.155000 1.930000 108 108 108
1.698000 -0.006000 1.940000 102 102 102
1.852000 0.059000 1.927000 87 87 87
2.023000 0.130000 1.929000 99 99 99
2.189000 0.206000 1.928000 102 102 102
1.695000 0.030000 1.933000 108 108 108
1.859000 0.100000 1.934000 87 87 87
2.022000 0.176000 1.930000 97 97 97
2.178000 0.256000 1.922000 103 103 103
1.706000 0.066000 1.942000 99 99 99
1.857000 0.141000 1.932000 99 99 99
2.014000 0.222000 1.925000 90 90 90
2.174000 0.308000 1.923000 97 97 97
1.702000 0.102000 1.936000 105 105 105
1.854000 0.182000 1.929000 91 91 91
2.013000 0.268000 1.928000 97 97 97
2.166000 0.358000 1.923000 81 81 81
1.701000 0.138000 1.934000 106 106 106
1.852000 0.223000 1.929000 97 97 97
2.007000 0.314000 1.926000 94 94 94
2.156000 0.409000 1.921000 103 103 103
1.704000 0.175000 1.937000 105 105 105
1.852000 0.264000 1.931000 102 102 102
1.999000 0.359000 1.924000 72 72 72
1.311000 0.280000 1.173000 17 17 17
1.705000 0.211000 1.938000 111 111 111
1.844000 0.304000 1.927000 94 94 94
1.308000 0.265000 1.264000 4 4 4
1.308000 0.311000 1.176000 48 48 48
1.701000 0.248000 1.935000 103 103 103
1.837000 0.345000 1.924000 84 84 84
1.304000 0.296000 1.265000 53 53 53
2.129000 0.560000 1.926000 40 40 40
1.698000 0.285000 1.934000 106 106 106
1.308000 0.275000 1.373000 11 11 11
1.318000 0.330000 1.284000 10 10 10
2.107000 0.607000 1.919000 102 102 102
1.699000 0.322000 1.937000 93 93 93
1.298000 0.303000 1.368000 47 47 47
1.963000 0.540000 1.924000 97 97 97
2.093000 0.656000 1.919000 100 100 100
1.375000 0.291000 1.571000 232 232 232
1.822000 0.469000 1.928000 160 160 160
1.949000 0.584000 1.920000 87 87 87
2.076000 0.704000 1.919000 99 99 99
1.297000 0.304000 1.485000 50 50 50
1.814000 0.509000 1.927000 96 96 96
1.936000 0.628000 1.919000 87 87 87
2.046000 0.747000 1.907000 65 65 65
1.661000 0.427000 1.907000 222 222 222
1.802000 0.549000 1.924000 96 96 96
1.926000 0.673000 1.923000 83 83 83
1.936000 0.758000 1.820000 50 50 50
1.677000 0.470000 1.932000 88 88 88
1.793000 0.589000 1.924000 97 97 97
1.906000 0.715000 1.918000 87 87 87
1.886000 0.789000 1.790000 88 88 88
1.673000 0.507000 1.933000 96 96 96
1.781000 0.629000 1.923000 99 99 99
1.880000 0.754000 1.907000 80 80 80
1.897000 0.845000 1.820000 85 85 85
1.664000 0.544000 1.931000 96 96 96
1.768000 0.669000 1.922000 94 94 94
1.873000 0.800000 1.917000 88 88 88
1.905000 0.903000 1.849000 99 99 99
1.652000 0.580000 1.925000 93 93 93
1.757000 0.709000 1.923000 100 100 100
1.857000 0.844000 1.918000 96 96 96
1.888000 0.948000 1.854000 100 100 100
1.646000 0.618000 1.929000 100 100 100
1.743000 0.749000 1.922000 100 100 100
1.837000 0.885000 1.917000 102 102 102
1.801000 0.957000 1.790000 63 63 63
1.635000 0.654000 1.926000 91 91 91
1.729000 0.789000 1.922000 96 96 96
1.816000 0.926000 1.915000 87 87 87
1.719000 0.965000 1.732000 60 60 60
1.623000 0.691000 1.924000 96 96 96
1.710000 0.826000 1.918000 102 102 102
1.775000 0.956000 1.894000 69 69 69
1.636000 0.968000 1.671000 66 66 66
1.611000 0.727000 1.921000 96 96 96
1.697000 0.867000 1.921000 99 99 99
1.696000 0.963000 1.831000 63 63 63
1.564000 0.975000 1.621000 71 71 71
1.599000 0.764000 1.921000 97 97 97
1.680000 0.905000 1.921000 97 97 97
1.623000 0.971000 1.775000 65 65 65
1.480000 0.970000 1.557000 65 65 65
1.586000 0.801000 1.920000 97 97 97
1.656000 0.940000 1.913000 90 90 90
1.546000 0.973000 1.713000 66 66 66
1.414000 0.974000 1.513000 60 60 60
1.572000 0.837000 1.918000 99 99 99
1.614000 0.964000 1.886000 69 69 69
1.471000 0.972000 1.653000 56 56 56
1.354000 0.979000 1.473000 62 62 62
1.558000 0.874000 1.918000 105 105 105
1.550000 0.973000 1.833000 65 65 65
1.406000 0.975000 1.604000 62 62 62
1.296000 0.983000 1.436000 63 63 63
1.545000 0.912000 1.921000 99 99 99
1.484000 0.977000 1.776000 62 62 62
1.347000 0.980000 1.561000 57 57 57
1.240000 0.986000 1.400000 65 65 65
1.528000 0.947000 1.918000 97 97 97
1.423000 0.983000 1.727000 68 68 68
1.286000 0.980000 1.514000 60 60 60
1.188000 0.989000 1.368000 65 65 65
1.494000 0.972000 1.896000 74 74 74
1.352000 0.979000 1.663000 59 59 59
1.236000 0.986000 1.481000 59 59 59
1.138000 0.992000 1.337000 69 69 69
1.438000 0.981000 1.845000 65 65 65
1.295000 0.983000 1.617000 56 56 56
1.184000 0.989000 1.444000 59 59 59
1.086000 0.991000 1.304000 68 68 68
1.378000 0.985000 1.790000 66 66 66
1.241000 0.985000 1.573000 53 53 53
1.138000 0.995000 1.415000 57 57 57
1.041000 0.994000 1.278000 65 65 65
1.315000 0.985000 1.730000 57 57 57
1.185000 0.984000 1.526000 54 54 54
1.088000 0.995000 1.380000 59 59 59
0.998000 0.997000 1.255000 68 68 68
1.258000 0.986000 1.678000 54 54 54
1.138000 0.989000 1.492000 57 57 57
1.040000 0.995000 1.347000 66 66 66
0.958000 1.001000 1.234000 69 69 69
1.205000 0.987000 1.629000 54 54 54
1.092000 0.992000 1.457000 62 62 62
1.000000 1.000000 1.324000 69 69 69
0.919000 1.005000 1.214000 77 77 77
1.152000 0.987000 1.581000 59 59 59
1.049000 0.996000 1.426000 59 59 59
0.957000 1.001000 1.296000 72 72 72
0.883000 1.011000 1.198000 68 68 68
1.105000 0.990000 1.541000 54 54 54
1.006000 0.999000 1.396000 62 62 62
0.922000 1.008000 1.278000 71 71 71
0.845000 1.012000 1.179000 72 72 72
1.058000 0.992000 1.501000 63 63 63
0.964000 1.001000 1.365000 65 65 65
0.882000 1.009000 1.254000 65 65 65
0.808000 1.014000 1.161000 78 78 78
1.018000 0.998000 1.471000 60 60 60
0.926000 1.005000 1.340000 57 57 57
0.847000 1.013000 1.235000 65 65 65
0.775000 1.018000 1.147000 77 77 77
0.976000 1.000000 1.436000 60 60 60
0.885000 1.005000 1.311000 71 71 71
0.810000 1.015000 1.215000 74 74 74
0.738000 1.016000 1.128000 81 81 81
0.936000 1.003000 1.405000 62 62 62
0.853000 1.012000 1.294000 63 63 63
0.775000 1.016000 1.195000 72 72 72
0.707000 1.020000 1.117000 88 88 88
0.898000 1.006000 1.377000 68 68 68
0.816000 1.013000 1.269000 71 71 71
0.738000 1.014000 1.173000 81 81 81
0.675000 1.021000 1.104000 96 96 96
0.860000 1.008000 1.348000 66 66 66
0.780000 1.014000 1.246000 71 71 71
0.708000 1.020000 1.162000 81 81 81
0.642000 1.021000 1.089000 93 93 93
0.825000 1.012000 1.323000 65 65 65
0.746000 1.015000 1.225000 78 78 78
0.675000 1.020000 1.145000 87 87 87
0.613000 1.025000 1.080000 91 91 91
0.789000 1.013000 1.296000 63 63 63
0.714000 1.018000 1.207000 68 68 68
0.644000 1.021000 1.130000 85 85 85
0.586000 1.030000 1.074000 88 88 88
0.754000 1.015000 1.273000 71 71 71
0.680000 1.018000 1.186000 77 77 77
0.613000 1.021000 1.115000 87 87 87
0.555000 1.029000 1.062000 19 19 19
0.723000 1.019000 1.253000 66 66 66
0.652000 1.024000 1.174000 80 80 80
0.586000 1.028000 1.108000 16 16 16
0.524000 1.025000 1.047000 83 83 83
0.691000 1.022000 1.233000 72 72 72
0.619000 1.022000 1.154000 78 78 78
0.557000 1.029000 1.095000 77 77 77
0.499000 1.032000 1.045000 19 19 19
0.656000 1.019000 1.206000 75 75 75
0.590000 1.026000 1.141000 78 78 78
0.529000 1.032000 1.086000 16 16 16
0.474000 1.038000 1.042000 17 17 17
0.624000 1.020000 1.186000 81 81 81
0.563000 1.031000 1.131000 83 83 83
0.501000 1.032000 1.075000 16 16 16
0.447000 1.039000 1.035000 17 17 17
0.596000 1.026000 1.173000 83 83 83
0.533000 1.030000 1.115000 84 84 84
0.475000 1.037000 1.069000 16 16 16
0.420000 1.038000 1.028000 17 17 17
0.566000 1.026000 1.154000 80 80 80
0.504000 1.029000 1.099000 17 17 17
0.447000 1.036000 1.057000 14 14 14
0.394000 1.040000 1.022000 17 17 17
0.537000 1.028000 1.138000 85 85 85
0.476000 1.031000 1.088000 63 63 63
0.421000 1.039000 1.051000 16 16 16
0.371000 1.047000 1.023000 17 17 17
0.506000 1.025000 1.117000 68 68 68
0.450000 1.034000 1.078000 17 17 17
0.397000 1.044000 1.047000 14 14 14
0.344000 1.042000 1.013000 17 17 17
0.482000 1.034000 1.111000 17 17 17
0.424000 1.037000 1.070000 14 14 14
0.371000 1.045000 1.040000 14 14 14
0.320000 1.045000 1.011000 17 17 17
0.453000 1.033000 1.095000 74 74 74
0.399000 1.042000 1.063000 19 19 19
0.344000 1.040000 1.028000 14 14 14
0.296000 1.050000 1.011000 17 17 17
0.427000 1.038000 1.085000 17 17 17
0.373000 1.042000 1.053000 14 14 14
0.321000 1.046000 1.027000 14 14 14
0.272000 1.050000 1.008000 17 17 17
0.399000 1.036000 1.070000 17 17 17
0.347000 1.042000 1.044000 14 14 14
0.294000 1.039000 1.014000 14 14 14
0.247000 1.049000 1.003000 17 17 17
0.374000 1.041000 1.063000 17 17 17
0.321000 1.042000 1.034000 14 14 14
0.269000 1.041000 1.010000 14 14 14
0.223000 1.048000 1.000000 17 17 17
0.347000 1.041000 1.050000 17 17 17
0.296000 1.044000 1.027000 14 14 14
0.246000 1.046000 1.009000 16 16 16
0.200000 1.051000 1.001000 17 17 17
0.322000 1.042000 1.039000 17 17 17
0.272000 1.047000 1.022000 14 14 14
0.222000 1.045000 1.004000 14 14 14
0.177000 1.054000 1.002000 17 17 17
0.297000 1.046000 1.032000 17 17 17
0.248000 1.049000 1.017000 14 14 14
0.199000 1.047000 1.002000 14 14 14
0.153000 1.048000 0.996000 19 19 19
0.271000 1.047000 1.024000 17 17 17
0.224000 1.051000 1.013000 14 14 14
0.175000 1.048000 1.000000 14 14 14
0.130000 1.050000 0.997000 19 19 19
0.245000 1.042000 1.010000 17 17 17
0.197000 1.043000 0.999000 14 14 14
0.152000 1.050000 0.998000 16 16 16
0.107000 1.047000 0.994000 19 19 19
0.221000 1.046000 1.005000 17 17 17
0.174000 1.046000 0.996000 14 14 14
0.129000 1.053000 0.998000 16 16 16
0.085000 1.048000 0.996000 19 19 19
0.196000 1.045000 0.996000 17 17 17
0.150000 1.049000 0.994000 16 16 16
0.106000 1.055000 0.998000 16 16 16
0.062000 1.048000 0.996000 19 19 19
0.171000 1.048000 0.991000 17 17 17
0.127000 1.052000 0.992000 16 16 16
0.082000 1.054000 0.996000 14 14 14
0.040000 1.060000 1.008000 17 17 17
0.146000 1.046000 0.982000 17 17 17
0.103000 1.056000 0.993000 16 16 16
0.059000 1.055000 0.996000 16 16 16
0.017000 1.065000 1.015000 19 19 19
0.122000 1.049000 0.979000 17 17 17
0.079000 1.054000 0.987000 16 16 16
0.036000 1.056000 0.996000 16 16 16
-0.004000 1.059000 1.012000 17 17 17
0.098000 1.049000 0.973000 17 17 17
0.055000 1.053000 0.983000 14 14 14
0.013000 1.059000 0.999000 16 16 16
-0.027000 1.063000 1.018000 19 19 19
0.073000 1.052000 0.971000 19 19 19
0.032000 1.058000 0.986000 16 16 16
-0.009000 1.059000 1.000000 16 16 16
-0.050000 1.067000 1.026000 17 17 17
0.049000 1.052000 0.966000 19 19 19
0.008000 1.061000 0.987000 16 16 16
-0.032000 1.064000 1.005000 14 14 14
-0.073000 1.071000 1.033000 17 17 17
0.025000 1.054000 0.965000 19 19 19
-0.015000 1.060000 0.984000 16 16 16
-0.055000 1.063000 1.006000 16 16 16
-0.096000 1.070000 1.036000 17 17 17
0.000000 1.060000 0.967000 19 19 19
-0.039000 1.062000 0.985000 16 16 16
-0.079000 1.062000 1.007000 16 16 16
-0.119000 1.075000 1.046000 17 17 17
-0.023000 1.057000 0.961000 19 19 19
-0.063000 1.064000 0.987000 16 16 16
-0.102000 1.062000 1.010000 14 14 14
-0.142000 1.072000 1.048000 17 17 17
-0.048000 1.058000 0.960000 19 19 19
-0.087000 1.068000 0.991000 16 16 16
-0.126000 1.067000 1.017000 16 16 16
-0.165000 1.075000 1.057000 17 17 17
-0.073000 1.065000 0.964000 19 19 19
-0.111000 1.066000 0.990000 16 16 16
-0.150000 1.069000 1.022000 16 16 16
-0.188000 1.075000 1.064000 17 17 17
-0.098000 1.066000 0.964000 19 19 19
-0.135000 1.066000 0.991000 14 14 14
-0.173000 1.068000 1.025000 16 16 16
-0.213000 1.080000 1.075000 17 17 17
-0.123000 1.068000 0.965000 19 19 19
-0.159000 1.064000 0.991000 14 14 14
-0.200000 1.081000 1.042000 14 14 14
-0.237000 1.082000 1.084000 16 16 16
-0.148000 1.067000 0.965000 19 19 19
-0.186000 1.077000 1.006000 14 14 14
-0.224000 1.081000 1.048000 14 14 14
-0.261000 1.083000 1.093000 17 17 17
-0.174000 1.071000 0.968000 19 19 19
-0.212000 1.081000 1.012000 14 14 14
-0.249000 1.083000 1.055000 14 14 14
-0.284000 1.079000 1.097000 75 75 75
-0.200000 1.073000 0.971000 19 19 19
-0.237000 1.082000 1.016000 14 14 14
-0.274000 1.082000 1.060000 14 14 14
-0.310000 1.086000 1.113000 17 17 17
-0.226000 1.072000 0.972000 19 19 19
-0.263000 1.082000 1.020000 14 14 14
-0.300000 1.085000 1.070000 14 14 14
-0.335000 1.087000 1.124000 87 87 87
-0.253000 1.076000 0.978000 20 20 20
-0.290000 1.084000 1.027000 14 14 14
-0.325000 1.086000 1.078000 14 14 14
-0.361000 1.091000 1.138000 17 17 17
-0.278000 1.070000 0.975000 19 19 19
-0.317000 1.087000 1.035000 14 14 14
-0.353000 1.091000 1.090000 14 14 14
-0.385000 1.087000 1.144000 91 91 91
-0.306000 1.073000 0.982000 20 20 20
-0.342000 1.083000 1.037000 14 14 14
-0.379000 1.090000 1.098000 14 14 14
-0.412000 1.091000 1.159000 91 91 91
-0.337000 1.086000 0.998000 20 20 20
-0.370000 1.087000 1.047000 14 14 14
-0.404000 1.087000 1.104000 77 77 77
-0.438000 1.090000 1.171000 87 87 87
-0.366000 1.088000 1.004000 20 20 20
-0.398000 1.088000 1.056000 69 69 69
-0.434000 1.095000 1.122000 16 16 16
-0.466000 1.094000 1.188000 88 88 88
-0.396000 1.092000 1.014000 20 20 20
-0.430000 1.096000 1.072000 16 16 16
-0.462000 1.095000 1.133000 87 87 87
-0.493000 1.094000 1.202000 74 74 74
-0.425000 1.093000 1.021000 19 19 19
-0.459000 1.097000 1.081000 85 85 85
-0.492000 1.098000 1.148000 16 16 16
-0.524000 1.101000 1.224000 75 75 75
-0.455000 1.093000 1.028000 20 20 20
-0.489000 1.099000 1.093000 16 16 16
-0.520000 1.098000 1.159000 85 85 85
-0.553000 1.102000 1.240000 75 75 75
-0.488000 1.099000 1.042000 19 19 19
-0.519000 1.099000 1.103000 85 85 85
-0.552000 1.104000 1.178000 88 88 88
-0.585000 1.108000 1.263000 78 78 78
-0.516000 1.093000 1.044000 71 71 71
-0.550000 1.099000 1.114000 83 83 83
-0.583000 1.105000 1.193000 80 80 80
-0.615000 1.109000 1.280000 78 78 78
-0.552000 1.101000 1.061000 19 19 19
-0.583000 1.103000 1.130000 80 80 80
-0.615000 1.107000 1.211000 81 81 81
-0.645000 1.108000 1.297000 75 75 75
-0.586000 1.104000 1.075000 90 90 90
-0.616000 1.105000 1.145000 83 83 83
-0.648000 1.110000 1.229000 77 77 77
-0.678000 1.112000 1.321000 69 69 69
-0.621000 1.106000 1.088000 87 87 87
-0.653000 1.110000 1.164000 78 78 78
-0.681000 1.109000 1.245000 74 74 74
-0.709000 1.112000 1.340000 74 74 74
-0.655000 1.106000 1.100000 87 87 87
-0.687000 1.112000 1.181000 83 83 83
-0.717000 1.113000 1.267000 74 74 74
-0.744000 1.115000 1.364000 68 68 68
-0.693000 1.109000 1.117000 84 84 84
-0.725000 1.115000 1.200000 80 80 80
-0.753000 1.116000 1.289000 75 75 75
-0.779000 1.118000 1.389000 77 77 77
-0.734000 1.117000 1.139000 90 90 90
-0.761000 1.115000 1.217000 77 77 77
-0.787000 1.114000 1.307000 80 80 80
-0.814000 1.119000 1.414000 71 71 71
-0.773000 1.118000 1.156000 80 80 80
-0.802000 1.120000 1.241000 81 81 81
-0.829000 1.121000 1.336000 72 72 72
-0.854000 1.124000 1.445000 65 65 65
-0.815000 1.121000 1.176000 80 80 80
-0.842000 1.121000 1.262000 72 72 72
-0.865000 1.119000 1.356000 68 68 68
-0.894000 1.129000 1.476000 68 68 68
-0.856000 1.121000 1.195000 72 72 72
-0.886000 1.127000 1.289000 72 72 72
-0.913000 1.129000 1.393000 69 69 69
-0.934000 1.130000 1.505000 65 65 65
-0.903000 1.127000 1.221000 77 77 77
-0.930000 1.129000 1.315000 71 71 71
-0.956000 1.132000 1.422000 63 63 63
-0.975000 1.133000 1.537000 69 69 69
-0.950000 1.130000 1.245000 77 77 77
-0.977000 1.133000 1.344000 69 69 69
-0.998000 1.131000 1.448000 65 65 65
-1.023000 1.140000 1.577000 66 66 66
-1.001000 1.135000 1.275000 72 72 72
-1.028000 1.139000 1.377000 63 63 63
-1.046000 1.136000 1.483000 65 65 65
-1.065000 1.140000 1.609000 59 59 59
-1.051000 1.138000 1.303000 77 77 77
-1.076000 1.140000 1.405000 66 66 66
-1.096000 1.140000 1.519000 62 62 62
-1.116000 1.146000 1.652000 56 56 56
-1.109000 1.145000 1.338000 72 72 72
-1.127000 1.141000 1.437000 68 68 68
-1.149000 1.145000 1.558000 63 63 63
-1.165000 1.149000 1.693000 62 62 62
-1.161000 1.144000 1.365000 71 71 71
-1.186000 1.148000 1.478000 65 65 65
-1.206000 1.151000 1.603000 62 62 62
-1.226000 1.161000 1.749000 71 71 71
-1.223000 1.149000 1.404000 66 66 66
-1.247000 1.154000 1.520000 68 68 68
-1.264000 1.156000 1.647000 62 62 62
-1.279000 1.162000 1.793000 65 65 65
-1.286000 1.153000 1.443000 68 68 68
-1.308000 1.157000 1.562000 68 68 68
-1.331000 1.165000 1.701000 72 72 72
-1.341000 1.170000 1.848000 63 63 63
-1.357000 1.160000 1.489000 65 65 65
-1.383000 1.168000 1.618000 74 74 74
-1.399000 1.173000 1.757000 65 65 65
-1.403000 1.175000 1.903000 80 80 80
-1.425000 1.162000 1.531000 60 60 60
-1.454000 1.173000 1.669000 71 71 71
-1.467000 1.177000 1.810000 66 66 66
-1.432000 1.150000 1.912000 100 100 100
-1.511000 1.174000 1.592000 74 74 74
-1.531000 1.179000 1.725000 63 63 63
-1.536000 1.179000 1.864000 65 65 65
-1.458000 1.123000 1.918000 115 115 115
-1.597000 1.182000 1.651000 66 66 66
-1.606000 1.181000 1.778000 63 63 63
-1.597000 1.172000 1.907000 81 81 81
-1.479000 1.092000 1.918000 114 114 114
-1.686000 1.187000 1.711000 69 69 69
-1.700000 1.192000 1.851000 62 62 62
-1.628000 1.142000 1.915000 106 106 106
-1.498000 1.059000 1.915000 108 108 108
-1.782000 1.194000 1.778000 60 60 60
-1.778000 1.188000 1.906000 83 83 83
-1.653000 1.108000 1.917000 108 108 108
-1.520000 1.029000 1.918000 111 111 111
-1.891000 1.203000 1.855000 62 62 62
-1.813000 1.153000 1.914000 117 117 117
-1.674000 1.070000 1.914000 111 111 111
-1.540000 0.998000 1.919000 109 109 109
-1.979000 1.195000 1.912000 83 83 83
-1.846000 1.116000 1.920000 117 117 117
-1.700000 1.036000 1.919000 111 111 111
-1.557000 0.965000 1.918000 106 106 106
-2.021000 1.157000 1.923000 108 108 108
-1.871000 1.074000 1.920000 117 117 117
-1.719000 0.997000 1.914000 112 112 112
-1.576000 0.933000 1.918000 105 105 105
-2.044000 1.107000 1.918000 117 117 117
-1.895000 1.032000 1.919000 118 118 118
-1.743000 0.962000 1.919000 112 112 112
-1.593000 0.899000 1.918000 94 94 94
-2.074000 1.061000 1.921000 108 108 108
-1.922000 0.991000 1.923000 108 108 108
-1.765000 0.925000 1.921000 111 111 111
-1.612000 0.868000 1.920000 97 97 97
-2.104000 1.015000 1.925000 112 112 112
-1.945000 0.948000 1.923000 112 112 112
-1.785000 0.887000 1.921000 112 112 112
-1.631000 0.835000 1.923000 99 99 99
-2.128000 0.966000 1.923000 106 106 106
-1.965000 0.904000 1.922000 112 112 112
-1.803000 0.848000 1.921000 111 111 111
-1.650000 0.803000 1.926000 106 106 106
-2.148000 0.915000 1.921000 99 99 99
-1.988000 0.861000 1.924000 111 111 111
-1.822000 0.810000 1.922000 117 117 117
-1.664000 0.768000 1.924000 111 111 111
-2.172000 0.866000 1.922000 109 109 109
-2.009000 0.817000 1.926000 103 103 103
-1.840000 0.771000 1.923000 112 112 112
-1.679000 0.734000 1.925000 115 115 115
-2.196000 0.816000 1.925000 100 100 100
-2.027000 0.771000 1.925000 106 106 106
-1.856000 0.731000 1.923000 112 112 112
-1.694000 0.700000 1.926000 111 111 111
-2.215000 0.765000 1.924000 102 102 102
-2.044000 0.726000 1.925000 108 108 108
-1.872000 0.691000 1.923000 117 117 117
-1.707000 0.665000 1.926000 106 106 106
-2.243000 0.716000 1.933000 96 96 96
-2.060000 0.680000 1.925000 106 106 106
-1.884000 0.650000 1.921000 111 111 111
-1.720000 0.629000 1.925000 108 108 108
-2.256000 0.663000 1.929000 90 90 90
-2.075000 0.633000 1.924000 102 102 102
-1.902000 0.611000 1.925000 77 77 77
-1.734000 0.594000 1.927000 68 68 68
-2.268000 0.609000 1.926000 96 96 96
-2.090000 0.586000 1.925000 111 111 111
-1.913000 0.569000 1.923000 114 114 114
-1.741000 0.557000 1.922000 105 105 105
-2.286000 0.557000 1.929000 103 103 103
-2.103000 0.539000 1.925000 108 108 108
-1.925000 0.527000 1.923000 112 112 112
-1.757000 0.523000 1.927000 108 108 108
-2.301000 0.504000 1.931000 102 102 102
-2.116000 0.492000 1.926000 105 105 105
-1.938000 0.486000 1.925000 123 123 123
-1.769000 0.487000 1.928000 111 111 111
-2.313000 0.450000 1.932000 97 97 97
-2.128000 0.445000 1.927000 103 103 103
-1.953000 0.446000 1.929000 111 111 111
-1.778000 0.450000 1.927000 108 108 108
-2.322000 0.396000 1.930000 112 112 112
-2.139000 0.397000 1.927000 105 105 105
-1.962000 0.403000 1.929000 114 114 114
-1.791000 0.415000 1.931000 103 103 103
-2.337000 0.343000 1.935000 106 106 106
-2.146000 0.349000 1.927000 102 102 102
-1.974000 0.361000 1.932000 105 105 105
-1.798000 0.378000 1.929000 108 108 108
-2.343000 0.288000 1.934000 99 99 99
-2.155000 0.301000 1.927000 100 100 100
-1.981000 0.319000 1.931000 105 105 105
-1.806000 0.341000 1.929000 108 108 108
-2.351000 0.234000 1.936000 108 108 108
-2.166000 0.253000 1.932000 94 94 94
-1.988000 0.276000 1.931000 105 105 105
-1.815000 0.303000 1.930000 103 103 103
-2.355000 0.179000 1.936000 105 105 105
-2.171000 0.204000 1.932000 94 94 94
-1.995000 0.233000 1.932000 108 108 108
-1.822000 0.266000 1.930000 96 96 96
-2.357000 0.124000 1.935000 97 97 97
-2.181000 0.155000 1.937000 103 103 103
-2.003000 0.190000 1.935000 108 108 108
-1.830000 0.228000 1.932000 106 106 106
-2.365000 0.070000 1.940000 94 94 94
-2.184000 0.106000 1.937000 96 96 96
-2.008000 0.147000 1.935000 111 111 111
-1.837000 0.191000 1.933000 105 105 105
-2.364000 0.014000 1.939000 93 93 93
-2.183000 0.057000 1.933000 90 90 90
-2.015000 0.104000 1.938000 106 106 106
-1.843000 0.153000 1.933000 100 100 100
-2.367000 -0.039000 1.941000 99 99 99
-2.188000 0.008000 1.937000 93 93 93
-2.018000 0.060000 1.939000 103 103 103
-1.847000 0.114000 1.933000 97 97 97
-2.366000 -0.094000 1.943000 105 105 105
-2.188000 -0.040000 1.938000 96 96 96
-2.019000 0.016000 1.939000 74 74 74
-1.853000 0.076000 1.936000 102 102 102
-2.360000 -0.149000 1.941000 99 99 99
-2.185000 -0.089000 1.937000 102 102 102
-2.018000 -0.027000 1.936000 103 103 103
-1.853000 0.037000 1.933000 94 94 94
-2.355000 -0.204000 1.942000 90 90 90
-2.184000 -0.138000 1.938000 100 100 100
-2.019000 -0.070000 1.938000 102 102 102
-1.859000 0.000000 1.936000 84 84 84
-2.351000 -0.258000 1.944000 94 94 94
-2.180000 -0.187000 1.938000 97 97 97
-2.018000 -0.114000 1.937000 100 100 100
-1.862000 -0.039000 1.938000 97 97 97
-2.344000 -0.312000 1.944000 90 90 90
-2.176000 -0.236000 1.938000 102 102 102
-2.019000 -0.158000 1.941000 112 112 112
-1.864000 -0.079000 1.938000 96 96 96
-2.333000 -0.366000 1.943000 90 90 90
-2.171000 -0.285000 1.939000 102 102 102
-2.016000 -0.202000 1.940000 108 108 108
-1.863000 -0.118000 1.937000 99 99 99
-2.328000 -0.421000 1.948000 88 88 88
-2.163000 -0.334000 1.938000 94 94 94
-2.009000 -0.246000 1.937000 99 99 99
-1.864000 -0.157000 1.938000 93 93 93
-2.314000 -0.473000 1.946000 87 87 87
-2.155000 -0.382000 1.938000 94 94 94
-2.013000 -0.291000 1.945000 99 99 99
-1.864000 -0.197000 1.940000 103 103 103
-2.299000 -0.525000 1.944000 83 83 83
-2.147000 -0.431000 1.940000 100 100 100
-2.005000 -0.334000 1.942000 100 100 100
-1.858000 -0.237000 1.935000 91 91 91
-2.289000 -0.579000 1.948000 78 78 78
-2.137000 -0.479000 1.940000 100 100 100
-2.000000 -0.379000 1.944000 100 100 100
-1.859000 -0.277000 1.939000 100 100 100
-2.274000 -0.631000 1.949000 96 96 96
-2.124000 -0.526000 1.939000 99 99 99
-1.993000 -0.423000 1.944000 99 99 99
-1.855000 -0.317000 1.938000 100 100 100
-2.258000 -0.683000 1.950000 96 96 96
-2.116000 -0.575000 1.943000 81 81 81
-1.984000 -0.466000 1.943000 99 99 99
-1.851000 -0.357000 1.939000 108 108 108
-2.243000 -0.735000 1.953000 100 100 100
-2.104000 -0.622000 1.945000 97 97 97
-1.974000 -0.510000 1.943000 100 100 100
-1.850000 -0.398000 1.943000 97 97 97
-2.223000 -0.786000 1.953000 97 97 97
-2.090000 -0.669000 1.945000 93 93 93
-1.965000 -0.554000 1.944000 94 94 94
-1.845000 -0.438000 1.942000 105 105 105
-2.198000 -0.834000 1.949000 103 103 103
-2.070000 -0.715000 1.941000 108 108 108
-1.958000 -0.598000 1.947000 93 93 93
-1.839000 -0.478000 1.943000 102 102 102
-2.178000 -0.884000 1.951000 106 106 106
-2.062000 -0.764000 1.949000 103 103 103
-1.942000 -0.640000 1.944000 102 102 102
-1.830000 -0.518000 1.941000 103 103 103
-2.161000 -0.936000 1.957000 103 103 103
-2.046000 -0.811000 1.952000 112 112 112
-1.933000 -0.684000 1.948000 103 103 103
-1.823000 -0.559000 1.942000 90 90 90
-2.133000 -0.982000 1.953000 105 105 105
-2.028000 -0.856000 1.952000 112 112 112
-1.919000 -0.727000 1.947000 106 106 106
-1.816000 -0.600000 1.944000 87 87 87
-2.109000 -1.030000 1.954000 106 106 106
-2.009000 -0.902000 1.953000 102 102 102
-1.904000 -0.769000 1.946000 106 106 106
-1.807000 -0.641000 1.945000 102 102 102
-2.087000 -1.079000 1.959000 100 100 100
-1.987000 -0.946000 1.953000 114 114 114
-1.890000 -0.813000 1.949000 111 111 111
-1.800000 -0.682000 1.948000 97 97 97
-2.056000 -1.123000 1.956000 100 100 100
-1.966000 -0.990000 1.954000 121 121 121
-1.873000 -0.854000 1.948000 114 114 114
-1.787000 -0.722000 1.945000 97 97 97
-2.033000 -1.171000 1.962000 91 91 91
-1.948000 -1.036000 1.958000 111 111 111
-1.857000 -0.897000 1.950000 114 114 114
-1.775000 -0.762000 1.946000 99 99 99
-2.002000 -1.214000 1.960000 103 103 103
-1.924000 -1.080000 1.959000 109 109 109
-1.839000 -0.939000 1.950000 118 118 118
-1.768000 -0.805000 1.952000 97 97 97
-1.973000 -1.259000 1.962000 105 105 105
-1.900000 -1.123000 1.960000 109 109 109
-1.820000 -0.980000 1.950000 117 117 117
-1.752000 -0.845000 1.950000 85 85 85
-1.943000 -1.303000 1.964000 106 106 106
-1.877000 -1.167000 1.963000 90 90 90
-1.799000 -1.021000 1.949000 118 118 118
-1.741000 -0.887000 1.954000 71 71 71
-1.910000 -1.345000 1.964000 109 109 109
-1.851000 -1.208000 1.963000 94 94 94
-1.791000 -1.069000 1.963000 102 102 102
-1.726000 -0.928000 1.954000 77 77 77
-1.878000 -1.386000 1.965000 108 108 108
-1.823000 -1.250000 1.964000 103 103 103
-1.770000 -1.110000 1.964000 85 85 85
-1.714000 -0.970000 1.959000 97 97 97
-1.844000 -1.427000 1.966000 102 102 102
-1.796000 -1.291000 1.966000 100 100 100
-1.741000 -1.147000 1.958000 71 71 71
-1.703000 -1.014000 1.967000 97 97 97
-1.812000 -1.469000 1.970000 105 105 105
-1.764000 -1.328000 1.963000 78 78 78
-1.724000 -1.191000 1.965000 85 85 85
-1.686000 -1.055000 1.967000 97 97 97
-1.772000 -1.504000 1.966000 84 84 84
-1.736000 -1.369000 1.966000 103 103 103
-1.698000 -1.230000 1.964000 100 100 100
-1.667000 -1.095000 1.967000 94 94 94
-1.738000 -1.544000 1.969000 96 96 96
-1.706000 -1.408000 1.967000 109 109 109
-1.674000 -1.270000 1.966000 114 114 114
-1.648000 -1.135000 1.969000 96 96 96
-1.702000 -1.582000 1.971000 99 99 99
-1.674000 -1.445000 1.967000 109 109 109
-1.649000 -1.309000 1.967000 111 111 111
-1.621000 -1.171000 1.962000 81 81 81
-1.659000 -1.613000 1.967000 94 94 94
-1.642000 -1.483000 1.968000 99 99 99
-1.624000 -1.349000 1.970000 111 111 111
-1.598000 -1.209000 1.960000 90 90 90
-1.624000 -1.651000 1.971000 103 103 103
-1.610000 -1.520000 1.971000 100 100 100
-1.595000 -1.386000 1.969000 111 111 111
-1.578000 -1.250000 1.963000 109 109 109
-1.583000 -1.684000 1.970000 93 93 93
-1.575000 -1.556000 1.971000 100 100 100
-1.568000 -1.425000 1.972000 108 108 108
-1.553000 -1.288000 1.962000 106 106 106
-1.544000 -1.718000 1.972000 93 93 93
-1.541000 -1.592000 1.972000 97 97 97
-1.537000 -1.461000 1.971000 100 100 100
-1.526000 -1.325000 1.960000 105 105 105
-1.504000 -1.750000 1.973000 96 96 96
-1.506000 -1.626000 1.973000 93 93 93
-1.506000 -1.496000 1.970000 102 102 102
-1.510000 -1.371000 1.972000 94 94 94
-1.461000 -1.780000 1.973000 90 90 90
-1.469000 -1.658000 1.973000 94 94 94
-1.478000 -1.536000 1.976000 103 103 103
-1.481000 -1.407000 1.969000 93 93 93
-1.419000 -1.809000 1.973000 62 62 62
-1.432000 -1.692000 1.974000 102 102 102
-1.447000 -1.572000 1.977000 96 96 96
-1.455000 -1.446000 1.970000 94 94 94
-1.377000 -1.839000 1.975000 37 37 37
-1.393000 -1.722000 1.974000 93 93 93
-1.412000 -1.605000 1.976000 99 99 99
-1.428000 -1.484000 1.972000 103 103 103
-1.341000 -1.876000 1.986000 34 34 34
-1.355000 -1.753000 1.974000 99 99 99
-1.378000 -1.638000 1.975000 99 99 99
-1.399000 -1.522000 1.973000 103 103 103
-1.298000 -1.905000 1.988000 34 34 34
-1.315000 -1.782000 1.974000 91 91 91
-1.345000 -1.673000 1.978000 103 103 103
-1.368000 -1.557000 1.972000 97 97 97
-1.254000 -1.930000 1.989000 34 34 34
-1.276000 -1.812000 1.976000 69 69 69
-1.308000 -1.704000 1.977000 102 102 102
-1.339000 -1.597000 1.976000 102 102 102
-1.203000 -1.945000 1.980000 69 69 69
-1.235000 -1.840000 1.976000 44 44 44
-1.273000 -1.738000 1.980000 96 96 96
-1.305000 -1.629000 1.973000 100 100 100
-1.155000 -1.963000 1.976000 93 93 93
-1.197000 -1.872000 1.982000 71 71 71
-1.235000 -1.768000 1.978000 96 96 96
-1.274000 -1.668000 1.977000 99 99 99
-1.112000 -1.989000 1.979000 90 90 90
-1.155000 -1.898000 1.982000 96 96 96
-1.197000 -1.799000 1.979000 63 63 63
-1.239000 -1.701000 1.976000 96 96 96
-1.066000 -2.010000 1.981000 94 94 94
-1.114000 -1.924000 1.983000 93 93 93
-1.158000 -1.828000 1.979000 85 85 85
-1.204000 -1.735000 1.976000 74 74 74
-1.020000 -2.030000 1.981000 91 91 91
-1.070000 -1.946000 1.981000 93 93 93
-1.121000 -1.859000 1.982000 100 100 100
-1.167000 -1.767000 1.974000 97 97 97
-0.974000 -2.050000 1.983000 91 91 91
-1.027000 -1.971000 1.983000 90 90 90
-1.079000 -1.885000 1.980000 102 102 102
-1.132000 -1.803000 1.978000 81 81 81
-0.927000 -2.067000 1.982000 91 91 91
-0.983000 -1.993000 1.983000 90 90 90
-1.041000 -1.917000 1.985000 97 97 97
-1.096000 -1.837000 1.981000 87 87 87
-0.879000 -2.082000 1.981000 94 94 94
-0.938000 -2.015000 1.984000 97 97 97
-0.998000 -1.941000 1.983000 96 96 96
-1.054000 -1.863000 1.976000 96 96 96
-0.832000 -2.097000 1.982000 94 94 94
-0.893000 -2.034000 1.983000 91 91 91
-0.957000 -1.969000 1.985000 90 90 90
-1.017000 -1.899000 1.981000 88 88 88
-0.785000 -2.113000 1.983000 93 93 93
-0.848000 -2.054000 1.984000 94 94 94
-0.914000 -1.994000 1.985000 91 91 91
-0.977000 -1.929000 1.981000 94 94 94
-0.737000 -2.125000 1.982000 87 87 87
-0.804000 -2.076000 1.987000 88 88 88
-0.871000 -2.019000 1.987000 84 84 84
-0.935000 -1.956000 1.980000 99 99 99
-0.689000 -2.135000 1.981000 96 96 96
-0.756000 -2.090000 1.984000 96 96 96
-0.824000 -2.037000 1.982000 94 94 94
-0.896000 -1.993000 1.988000 94 94 94
-0.642000 -2.151000 1.986000 81 81 81
-0.711000 -2.109000 1.988000 91 91 91
-0.782000 -2.065000 1.988000 93 93 93
-0.852000 -2.021000 1.988000 99 99 99
-0.593000 -2.158000 1.983000 93 93 93
-0.663000 -2.121000 1.984000 97 97 97
-0.737000 -2.087000 1.990000 91 91 91
-0.808000 -2.047000 1.988000 97 97 97
-0.546000 -2.170000 1.986000 97 97 97
-0.616000 -2.135000 1.984000 78 78 78
-0.688000 -2.100000 1.984000 84 84 84
-0.762000 -2.071000 1.986000 94 94 94
-0.498000 -2.178000 1.987000 91 91 91
-0.569000 -2.152000 1.988000 85 85 85
-0.644000 -2.128000 1.992000 81 81 81
-0.717000 -2.096000 1.987000 99 99 99
-0.449000 -2.183000 1.985000 96 96 96
-0.522000 -2.165000 1.988000 90 90 90
-0.596000 -2.143000 1.989000 88 88 88
-0.670000 -2.119000 1.986000 90 90 90
-0.401000 -2.189000 1.986000 97 97 97
-0.474000 -2.176000 1.989000 91 91 91
-0.549000 -2.160000 1.989000 88 88 88
-0.623000 -2.143000 1.987000 72 72 72
-0.354000 -2.197000 1.989000 93 93 93
-0.425000 -2.185000 1.988000 87 87 87
-0.500000 -2.175000 1.989000 85 85 85
-0.575000 -2.167000 1.989000 91 91 91
-0.304000 -2.189000 1.980000 85 85 85
-0.377000 -2.194000 1.988000 90 90 90
-0.452000 -2.194000 1.993000 90 90 90
-0.525000 -2.184000 1.986000 94 94 94
-0.257000 -2.194000 1.981000 87 87 87
-0.328000 -2.202000 1.988000 87 87 87
-0.402000 -2.203000 1.988000 80 80 80
-0.476000 -2.208000 1.990000 93 93 93
-0.209000 -2.196000 1.982000 87 87 87
-0.279000 -2.204000 1.984000 91 91 91
-0.353000 -2.220000 1.992000 96 96 96
-0.425000 -2.226000 1.989000 87 87 87
-0.161000 -2.197000 1.982000 85 85 85
-0.230000 -2.215000 1.988000 93 93 93
-0.303000 -2.234000 1.994000 93 93 93
-0.374000 -2.243000 1.989000 90 90 90
-0.114000 -2.198000 1.984000 90 90 90
-0.182000 -2.219000 1.987000 87 87 87
-0.252000 -2.236000 1.987000 93 93 93
-0.323000 -2.263000 1.992000 88 88 88
-0.067000 -2.196000 1.984000 84 84 84
-0.132000 -2.218000 1.983000 90 90 90
-0.202000 -2.250000 1.991000 90 90 90
-0.271000 -2.280000 1.993000 90 90 90
-0.019000 -2.189000 1.980000 74 74 74
-0.083000 -2.225000 1.987000 85 85 85
-0.151000 -2.256000 1.989000 90 90 90
-0.217000 -2.290000 1.989000 87 87 87
0.027000 -2.183000 1.977000 87 87 87
-0.034000 -2.227000 1.988000 66 66 66
-0.099000 -2.267000 1.992000 88 88 88
-0.164000 -2.304000 1.991000 87 87 87
0.073000 -2.180000 1.979000 85 85 85
0.014000 -2.227000 1.987000 85 85 85
-0.048000 -2.273000 1.992000 66 66 66
-0.109000 -2.314000 1.989000 91 91 91
0.120000 -2.172000 1.977000 96 96 96
0.063000 -2.227000 1.987000 88 88 88
0.003000 -2.277000 1.991000 94 94 94
-0.055000 -2.324000 1.989000 72 72 72
0.166000 -2.168000 1.978000 97 97 97
0.112000 -2.225000 1.987000 90 90 90
0.055000 -2.276000 1.987000 85 85 85
0.000000 -2.335000 1.990000 99 99 99
0.212000 -2.159000 1.977000 51 51 51
0.161000 -2.218000 1.983000 93 93 93
0.108000 -2.282000 1.990000 90 90 90
0.055000 -2.346000 1.993000 96 96 96
0.258000 -2.153000 1.979000 90 90 90
0.211000 -2.228000 1.995000 37 37 37
0.160000 -2.283000 1.990000 91 91 91
0.111000 -2.347000 1.989000 94 94 94
0.303000 -2.143000 1.978000 106 106 106
0.259000 -2.214000 1.987000 69 69 69
0.213000 -2.283000 1.989000 90 90 90
0.167000 -2.354000 1.990000 91 91 91
0.348000 -2.133000 1.978000 100 100 100
0.308000 -2.203000 1.982000 94 94 94
0.265000 -2.280000 1.988000 88 88 88
0.224000 -2.358000 1.991000 96 96 96
0.393000 -2.123000 1.979000 100 100 100
0.357000 -2.202000 1.987000 97 97 97
0.319000 -2.280000 1.990000 87 87 87
0.281000 -2.361000 1.991000 103 103 103
0.438000 -2.113000 1.980000 96 96 96
0.405000 -2.188000 1.981000 96 96 96
0.371000 -2.273000 1.987000 87 87 87
0.338000 -2.360000 1.989000 102 102 102
0.482000 -2.102000 1.982000 102 102 102
0.453000 -2.179000 1.981000 93 93 93
0.425000 -2.273000 1.991000 90 90 90
0.396000 -2.360000 1.990000 100 100 100
0.525000 -2.085000 1.978000 97 97 97
0.502000 -2.173000 1.985000 91 91 91
0.477000 -2.263000 1.987000 85 85 85
0.453000 -2.355000 1.987000 96 96 96
0.568000 -2.071000 1.978000 48 48 48
0.550000 -2.161000 1.983000 69 69 69
0.529000 -2.253000 1.985000 78 78 78
0.511000 -2.351000 1.987000 94 94 94
0.614000 -2.064000 1.986000 31 31 31
0.601000 -2.161000 1.994000 28 28 28
0.583000 -2.251000 1.991000 29 29 29
0.570000 -2.353000 1.992000 37 37 37
0.658000 -2.053000 1.990000 31 31 31
0.648000 -2.147000 1.993000 26 26 26
0.636000 -2.240000 1.990000 28 28 28
0.632000 -2.357000 2.001000 25 25 25
0.700000 -2.034000 1.988000 32 32 32
0.696000 -2.135000 1.995000 28 28 28
0.688000 -2.227000 1.988000 26 26 26
0.691000 -2.351000 2.003000 25 25 25
0.742000 -2.018000 1.990000 32 32 32
0.740000 -2.111000 1.987000 26 26 26
0.740000 -2.215000 1.988000 26 26 26
0.748000 -2.340000 2.001000 26 26 26
0.778000 -1.985000 1.975000 35 35 35
0.788000 -2.098000 1.989000 26 26 26
0.793000 -2.202000 1.987000 26 26 26
0.805000 -2.325000 1.998000 20 20 20
0.817000 -1.961000 1.970000 48 48 48
0.835000 -2.082000 1.990000 28 28 28
0.844000 -2.185000 1.986000 25 25 25
0.863000 -2.311000 1.996000 25 25 25
0.857000 -1.941000 1.969000 77 77 77
0.881000 -2.064000 1.990000 28 28 28
0.901000 -2.182000 1.997000 23 23 23
0.922000 -2.299000 1.998000 25 25 25
0.897000 -1.922000 1.970000 90 90 90
0.928000 -2.049000 1.993000 28 28 28
0.947000 -2.151000 1.985000 26 26 26
0.979000 -2.280000 1.994000 26 26 26
0.937000 -1.902000 1.971000 96 96 96
0.973000 -2.028000 1.993000 31 31 31
1.001000 -2.140000 1.991000 25 25 25
1.039000 -2.268000 1.998000 25 25 25
0.976000 -1.881000 1.972000 90 90 90
1.010000 -1.991000 1.977000 40 40 40
1.053000 -2.122000 1.993000 25 25 25
1.092000 -2.241000 1.991000 25 25 25
1.013000 -1.856000 1.969000 93 93 93
1.051000 -1.963000 1.970000 59 59 59
1.102000 -2.097000 1.989000 28 28 28
1.145000 -2.213000 1.984000 40 40 40
1.053000 -1.836000 1.972000 94 94 94
1.096000 -1.943000 1.973000 77 77 77
1.147000 -2.067000 1.981000 40 40 40
1.203000 -2.193000 1.985000 96 96 96
1.091000 -1.812000 1.972000 91 91 91
1.138000 -1.917000 1.969000 84 84 84
1.195000 -2.040000 1.977000 87 87 87
1.256000 -2.166000 1.981000 94 94 94
1.125000 -1.783000 1.967000 100 100 100
1.183000 -1.897000 1.974000 87 87 87
1.245000 -2.017000 1.978000 85 85 85
1.310000 -2.139000 1.979000 97 97 97
1.163000 -1.760000 1.970000 81 81 81
1.224000 -1.869000 1.971000 91 91 91
1.290000 -1.987000 1.973000 78 78 78
1.365000 -2.112000 1.978000 96 96 96
1.198000 -1.733000 1.967000 88 88 88
1.265000 -1.842000 1.970000 93 93 93
1.338000 -1.959000 1.972000 80 80 80
1.420000 -2.086000 1.979000 94 94 94
1.231000 -1.703000 1.964000 102 102 102
1.306000 -1.814000 1.969000 97 97 97
1.385000 -1.930000 1.971000 85 85 85
1.474000 -2.057000 1.978000 99 99 99
1.269000 -1.681000 1.969000 99 99 99
1.345000 -1.785000 1.968000 90 90 90
